# .PCD v0.7 - Point Cloud Data file format
VERSION 0.7
FIELDS x y z intensity
SIZE 4 4 4 4
TYPE F F F F
COUNT 1 1 1 1
WIDTH 1100
HEIGHT 1
VIEWPOINT 0 0 0 1 0 0 0
POINTS 1100
DATA ascii
1.5588032 -8.0352345 0.10444071 0.0025627166
1.6473457 -8.0394001 0.1042079 0.0027955323
1.7183295 -8.0395002 0.10937228 0.078911282
1.7923864 -8.0406513 0.12046998 0.067813583
1.8950875 -8.0606298 0.11819424 0.070089318
1.9530616 -8.0490637 0.14058048 0.083856001
1.0233361 -7.9750366 0.10001645 0.023119703
1.0829986 -7.9707265 0.085524432 0.0086276829
1.1537782 -7.966167 0.08738894 0.00890062
1.2332495 -7.9757137 0.099235617 0.020747297
1.3192295 -7.9791522 0.10226075 0.01313521
1.4037161 -7.9668317 0.092775494 0.0036499575
1.4694468 -7.9651365 0.093006551 0.0038810149
1.5550967 -7.9618659 0.10917889 0.0021754578
1.6490474 -7.9634485 0.099231534 0.0077718943
1.7150078 -7.9641533 0.10019643 0.088087134
1.7863911 -7.9647861 0.10653606 0.081747502
1.8796188 -7.952837 0.10691533 0.08136823
1.9540383 -7.9378662 0.14099188 0.083444595
1.0104301 -7.9056458 0.092497133 0.015600383
1.0856891 -7.8883057 0.08799158 0.018689252
1.1636275 -7.8878069 0.095057696 0.022418588
1.2183064 -7.8906727 0.10454369 0.031904578
1.3317224 -7.8870811 0.099657655 0.021832228
1.4024204 -7.8810124 0.090996161 0.013170734
1.4706519 -7.8786349 0.098430604 0.020605177
1.5703202 -7.8892856 0.094361156 0.0097365379
1.6449981 -7.8794866 0.094317347 0.0096927285
1.7170854 -7.8863297 0.094181083 0.015191197
1.7866609 -7.8818345 0.0987413 0.01063098
1.8773065 -7.8869176 0.1014355 0.0079367831
1.9528574 -7.8877344 0.13357742 0.047354639
1.00922 -7.7933617 0.099501781 0.030199453
1.1152238 -7.805831 0.10707389 0.03443478
1.1410054 -7.8091097 0.098187342 0.025548235
1.2244534 -7.7833767 0.12023684 0.047597729
1.3262887 -7.7881312 0.096331403 0.018505976
1.4012185 -7.8087029 0.088412546 0.010587119
1.4817952 -7.8040838 0.090516828 0.012691401
1.5691657 -7.7935486 0.084519438 0.00010517985
1.6525801 -7.7934437 0.089125536 0.0045009181
1.7176853 -7.7940488 0.088693999 0.020678282
1.7922214 -7.7936034 0.094785698 0.014586583
1.8862947 -7.7930117 0.095518604 0.013853677
1.9600823 -7.8036885 0.11918532 0.061746739
2.0233393 -7.80832 0.14452338 0.036408678
2.0824018 -7.7648273 0.13931431 0.041617751
2.3199048 -7.7931557 0.151398 0.069546476
1.08295 -7.6936874 0.10720654 0.051479079
1.2044847 -7.6984544 0.11903978 0.055817671
1.3200033 -7.7442379 0.09122771 0.013402283
1.4284825 -7.7393661 0.08056815 0.0027427226
1.4850427 -7.7224293 0.082006037 0.0041806102
1.5588162 -7.715054 0.08246202 0.0021625981
1.6566837 -7.7221537 0.084455922 0.00016869605
1.7206956 -7.713768 0.085214145 0.024158135
1.7961277 -7.7149706 0.093362227 0.016010053
1.8924887 -7.7188835 0.094683677 0.014688604
1.939725 -7.7096224 0.11089616 0.070035905
2.0286534 -7.7070656 0.13532107 0.045610994
2.121614 -7.7040009 0.14290735 0.061476395
2.3152156 -7.6946397 0.13876849 0.0041388571
2.3296843 -7.7452097 0.1548312 0.066113278
2.4174018 -7.7049432 0.15297693 0.067967549
2.5708554 -7.7470841 0.14783849 0.12942378
1.0253733 -7.6415801 0.08957231 0.033844851
1.0668792 -7.6003647 0.092718959 0.036991499
1.1559633 -7.6074729 0.10710093 0.043878816
1.2586815 -7.6273909 0.12628485 0.063062742
1.3296629 -7.6637435 0.083434291 0.012909919
1.3872399 -7.6236415 0.11754069 0.047016315
1.4718006 -7.6599374 0.08100161 0.010477237
1.5515344 -7.6519227 0.08283326 0.006707795
1.6583025 -7.6531239 0.081362158 0.0052366927
1.7169917 -7.6558566 0.08443623 0.00077791512
1.7913214 -7.6498065 0.091772191 0.0065580457
1.8905935 -7.650538 0.093919754 0.0087056085
1.9375209 -7.6453094 0.097663984 0.0037715137
2.0360026 -7.6378322 0.14423995 0.04280445
2.1402617 -7.6242356 0.1529136 0.015461221
2.1975439 -7.6184773 0.15464979 0.017197415
2.2680316 -7.6264758 0.15635514 0.018902764
2.3741086 -7.61727 0.14087918 0.0020281672
2.4411929 -7.6307201 0.14594278 0.0030354261
2.6084726 -7.6520438 0.15073429 0.062276199
1.1549342 -7.5332284 0.10194099 0.038718879
1.324807 -7.5707359 0.086623825 0.016099453
1.394519 -7.5586677 0.090943493 0.020419121
1.5072436 -7.5722003 0.12446741 0.048341945
1.570792 -7.5826468 0.080773942 0.0046484768
1.6695248 -7.562007 0.11734946 0.041223995
1.72018 -7.5468946 0.084624618 0.00058952719
1.8094431 -7.551425 0.08774443 0.0025302842
1.8738678 -7.5506916 0.11474858 0.029534437
1.9437306 -7.5685754 0.10462272 0.0031872243
2.0470514 -7.5540476 0.13714974 0.035714239
2.1268849 -7.550724 0.13845603 0.0010036528
2.1963952 -7.5634151 0.14701584 0.0095634609
2.2906611 -7.5501118 0.13745238 0
2.3505757 -7.5518775 0.14167985 0.0012274981
2.4457908 -7.5491366 0.13701573 0.0058916211
2.5260677 -7.536448 0.1330529 0.07995759
2.6052244 -7.5337181 0.13783294 0.07517755
2.6694748 -7.5351639 0.1431029 0.069907591
2.7576168 -7.5364861 0.14052548 0.20876978
1.2288554 -7.4829345 0.084080912 0.042260397
1.3120329 -7.5036159 0.082041934 0.011517562
1.4880146 -7.4655242 0.095012665 0.045606613
1.7557449 -7.497674 0.10418218 0.030104868
1.8213099 -7.4821215 0.10408041 0.030003093
1.8848699 -7.4928823 0.10277934 0.028702028
1.9828575 -7.4584961 0.13433893 0.056074657
2.0290949 -7.4597149 0.12928031 0.05101604
2.1214924 -7.47858 0.12608695 0.036007024
2.1969466 -7.4823594 0.12279825 0.032718323
2.2967286 -7.4695926 0.11422426 0.024144329
2.3459406 -7.4714389 0.11342871 0.020955451
2.4260309 -7.4811964 0.11713342 0.024660155
2.5408921 -7.4671221 0.11156847 0.031534426
2.60042 -7.4725208 0.11936095 0.023741946
2.6666164 -7.4844551 0.14102599 0.0020769089
2.7415485 -7.4719491 0.11966284 0.15552598
1.0272459 -7.4218802 0.098446816 0.062131181
1.2730631 -7.4146404 0.081684679 0.039864164
1.4245695 -7.3802276 0.086772077 0.037366025
1.5316195 -7.3737473 0.083997287 0.022406735
1.6500059 -7.3854389 0.093181252 0.0315907
1.7151283 -7.4358692 0.099153183 0.025075868
1.8144382 -7.410152 0.10092691 0.02684959
1.8882341 -7.4137607 0.098306321 0.024229005
1.9784094 -7.4076166 0.11423286 0.035968587
2.0291014 -7.4181638 0.10953465 0.031270377
2.103682 -7.4007497 0.10539509 0.01531516
2.2033176 -7.4037418 0.096810274 0.0067303479
2.2899306 -7.4163985 0.09843564 0.0083557144
2.3528593 -7.4117451 0.094752513 0.0022792518
2.4408381 -7.4055471 0.091828175 0.00064508617
2.5256 -7.4115696 0.09339112 0.049711779
2.5976229 -7.4218631 0.10362665 0.039476246
2.6716692 -7.4102111 0.11474855 0.028354347
2.7478418 -7.4354553 0.14348938 0.13169946
2.800143 -7.4123058 0.14344241 0.13174643
1.2351134 -7.3101792 0.082496092 0.040675577
1.5211052 -7.3334394 0.10247508 0.040884532
1.6283671 -7.3200469 0.083884865 0.022294313
1.8014323 -7.3341594 0.1182658 0.044188485
1.8859302 -7.3460822 0.10292552 0.028848201
1.96427 -7.3375611 0.097187109 0.018922836
2.0404832 -7.3422709 0.1031832 0.024918929
2.1087959 -7.3367777 0.087921768 0.0021581575
2.1932275 -7.335855 0.093433149 0.0033532232
2.281255 -7.3228974 0.092334047 0.002254121
2.3612063 -7.3419561 0.093174696 0.00070143491
2.4365578 -7.3298769 0.090128057 0.0023452044
2.5177336 -7.3028574 0.10144436 0.041658543
2.6136858 -7.3270411 0.084268481 0.058834419
2.6629736 -7.3350654 0.096733019 0.04636988
2.7714052 -7.3263655 0.13744631 0.13774252
1.3382059 -7.2645707 0.082396716 0.054563727
1.5146929 -7.2081485 0.082586855 0.045399524
1.7387695 -7.2372193 0.10599714 0.055555262
1.83227 -7.2426991 0.085208394 0.034766518
1.9443214 -7.2506576 0.10124572 0.039655171
2.0352426 -7.2193322 0.11871946 0.057128906
2.1008227 -7.2527981 0.10191247 0.035255522
2.202014 -7.2385111 0.086711265 0.020054318
2.2691705 -7.2361712 0.090079926 0.023422979
2.3595917 -7.2380176 0.087554902 0.010582872
2.4515479 -7.2536821 0.085623831 0.0086518005
2.5257118 -7.2578063 0.094711639 0.020036913
2.5902462 -7.2548499 0.12213184 0.007383287
2.675359 -7.2742467 0.12815814 0.013409585
1.8256296 -7.1354547 0.092203677 0.041761801
1.8752868 -7.1449547 0.10196953 0.051527649
1.9500437 -7.1617837 0.08824499 0.026654437
2.0223122 -7.1568537 0.10798579 0.046395242
2.2072718 -7.1619139 0.094873831 0.028216884
2.3134654 -7.1839771 0.10677096 0.029798932
2.3653855 -7.1715403 0.092473261 0.015501231
2.4642293 -7.1610622 0.097726099 0.020754069
2.5399146 -7.1388464 0.10483186 0.009916693
2.5715337 -7.138833 0.11409221 0.000656344
2.6406331 -7.1267018 0.11528974 0.00054118782
2.0582108 -7.072464 0.093468249 0.050895419
2.1395659 -7.0861864 0.12355323 0.069283441
2.2065918 -7.105041 0.097213201 0.030556254
2.3036225 -7.0519004 0.11576656 0.051465534
2.3680999 -7.0731916 0.10558005 0.041279025
2.4636061 -7.0750513 0.11413933 0.049838312
2.5513637 -7.0850344 0.10991927 0
2.5721812 -7.0751843 0.13439852 0.024479248
2.6427224 -7.1115804 0.15144219 0.036693633
1.6713458 -7.029408 0.08459156 0.064030036
1.8953739 -7.0149322 0.098571181 0.066106111
2.1504831 -7.0362563 0.13103044 0.07676065
2.197279 -7.0032592 0.093329303 0.039059516
2.2733898 -7.0136919 0.08840102 0.034131233
2.4293647 -7.0046706 0.098154835 0.033853814
2.5314841 -7.0269833 0.11647907 0.0065597966
2.5772133 -7.0238814 0.12747976 0.017560489
2.6577525 -7.0098405 0.1404874 0.03056813
1.023051 -8.9865036 0.18051481 0.00069467723
1.1670319 -8.9715271 0.20591056 0.010489464
1.2240418 -8.979414 0.224793 0.029371902
1.0171998 -8.9328747 0.17772341 0.003486082
1.0722159 -8.9196682 0.19346388 0.012254387
1.155664 -8.9110193 0.20184478 0.006423682
1.2464719 -8.9217491 0.20003013 0.0046090335
1.0209013 -8.8607063 0.17463472 0.011977807
1.0961289 -8.8402052 0.19276673 0.030109808
1.1470431 -8.8320293 0.21079759 0.026359558
1.2229842 -8.8243294 0.21791467 0.033476636
1.015449 -8.750597 0.18777514 0.025118217
1.0771719 -8.7783022 0.18703718 0.024380267
1.1613381 -8.7521181 0.20677987 0.022341833
1.2129999 -8.7513866 0.21447569 0.030037656
1.0237496 -8.6552067 0.20783436 0.066150665
1.0736444 -8.6799269 0.1975437 0.055859998
1.1652476 -8.674119 0.20483945 0.046542853
1.230871 -8.6780863 0.22336794 0.065071344
1.2902423 -8.6689653 0.22410111 0.065804511
1.5940781 -8.6465483 0.23398536 0.03734532
1.7320906 -8.6584988 0.22065254 0.10804246
1.7835386 -8.6473284 0.18728593 0.14140907
1.0217884 -8.6118259 0.18235087 0.040667176
1.0843965 -8.585887 0.18121612 0.039532423
1.1558456 -8.5972099 0.2033277 0.045031101
1.237038 -8.5985785 0.20615964 0.047863036
1.3253649 -8.6146536 0.20083453 0.0059453398
1.4056807 -8.5997887 0.20403627 0.0027436018
1.4817019 -8.5897398 0.2025045 0.0042753667
1.5575548 -8.6073284 0.19873296 0.072597727
1.6328032 -8.5977869 0.19023161 0.081099078
1.7263827 -8.5894375 0.20386523 0.12482977
1.8043376 -8.582098 0.19977835 0.12891665
1.8610599 -8.5950489 0.20686397 0.12183103
1.0211054 -8.5373392 0.2021846 0.060500905
1.0885984 -8.5192709 0.18380082 0.042117119
1.1555496 -8.504179 0.19590442 0.037607819
1.2448335 -8.505518 0.2193989 0.061102301
1.3214272 -8.4992733 0.20946772 0.048216164
1.3886451 -8.5069447 0.19896722 0.007812649
1.4896036 -8.5157881 0.19606416 0.010715708
1.5558555 -8.5194855 0.18954912 0.081781566
1.6546338 -8.527524 0.19629081 0.075039878
1.7273239 -8.5263081 0.19677578 0.13191922
1.813519 -8.5132675 0.20838886 0.12030613
1.8575047 -8.5128889 0.19589047 0.13280453
1.9334588 -8.5193844 0.16515671 0.28209549
1.0204638 -8.4678421 0.20552996 0.079572082
1.0916479 -8.4332705 0.18129741 0.05533953
1.1708785 -8.4298544 0.20582567 0.078494325
1.2355886 -8.4382954 0.21313323 0.085801885
1.3189253 -8.4347105 0.21785754 0.05660598
1.3895806 -8.428937 0.21668448 0.055432916
1.4762686 -8.4523888 0.20690687 0.04565531
1.5636239 -8.4338379 0.19133419 0.012668148
1.653452 -8.4389639 0.2071853 0.0031829625
1.7297891 -8.4396114 0.20400234 0.072645202
1.7998427 -8.4365225 0.20976293 0.066884607
1.8720713 -8.4387531 0.20635521 0.070292324
1.0049649 -8.3870907 0.18751216 0.061554283
1.0988675 -8.3725328 0.18419375 0.058235869
1.1616682 -8.3848391 0.19629425 0.068962902
1.2450229 -8.3679895 0.19864243 0.071311086
1.3308374 -8.3798342 0.20308994 0.041838378
1.3873904 -8.3796377 0.1994987 0.038247138
1.4722452 -8.3583565 0.20194679 0.040695235
1.5690308 -8.3592777 0.20016094 0.0038414001
1.6413027 -8.393055 0.21503349 0.011031151
1.7159297 -8.3530684 0.20477869 0.071868852
1.8059155 -8.3405561 0.21162163 0.065025911
1.8697195 -8.3545961 0.2094029 0.067244634
1.1042448 -8.2638197 0.16125156 0.061356805
1.1446414 -8.2980299 0.20018187 0.10028712
1.2524178 -8.2827654 0.18747208 0.087577321
1.3209084 -8.2937937 0.18794703 0.070647851
1.4088418 -8.281786 0.20356791 0.086268723
1.4849713 -8.3006811 0.17791495 0.016663387
1.6640797 -8.2971621 0.20588525 0.069401562
1.740193 -8.288023 0.2043104 0.0036492348
1.8066264 -8.2859173 0.21125719 0.0032975525
1.8528523 -8.2827158 0.21959274 0.011633098
1.9299304 -8.2754831 0.20553811 0.078330263
1.2452304 -8.223794 0.16917223 0.069277473
1.3511649 -8.2239532 0.16433775 0.04703857
1.378868 -8.2016354 0.17742389 0.06012471
1.4653805 -8.2357121 0.16559893 0.048299745
1.7355504 -8.2011948 0.18949914 0.018460497
1.808996 -8.2065535 0.20198999 0.0059696436
1.8804027 -8.1995964 0.20795849 1.1473894e-06
1.9481767 -8.1954374 0.18433322 0.099535152
1.2013371 -8.1015511 0.16077568 0.060880922
1.3242391 -8.1230135 0.17008089 0.052781701
1.3840297 -8.0842962 0.16366193 0.074536391
1.5988604 -8.0964289 0.16357455 0.056571119
1.6700956 -8.1079607 0.16248165 0.025997967
1.7258574 -8.1517916 0.17117564 0.036783993
1.8072342 -8.1083508 0.19382592 0.014133722
1.8721305 -8.1097097 0.20795964 0
1.9448885 -8.1146097 0.21544313 0.068425238
1.4148821 -8.010107 0.16143204 0.072306506
1.4936708 -8.0131569 0.1735646 0.084439062
1.7453663 -8.0421839 0.19041333 0.0021297634
1.8095747 -8.0487862 0.18200371 0.006279856
1.8721036 -8.030406 0.20513862 0.016855061
1.9464347 -8.0286655 0.21351205 0.010924429
2.1519001 -8.0016499 0.22878282 0.035403296
1.7439404 -7.9560142 0.16470565 0.023577914
1.8080118 -7.9736652 0.18980457 0.0015210062
1.878162 -7.9751716 0.21367177 0.025388211
1.9597738 -7.9564252 0.20438375 0.020052731
2.0105247 -7.9202828 0.21976654 0.0046699345
2.1314528 -7.9352474 0.23979823 0.024387881
2.1847787 -7.9241157 0.2255823 0.038603812
2.3191862 -7.929285 0.21805547 0.088094369
2.3755076 -7.974977 0.22255282 0.083597019
2.431962 -7.9326034 0.21581721 0.090332627
2.6355174 -7.9260144 0.21411501 0.157968
2.6720688 -7.9530411 0.23227115 0.13981186
1.3490601 -7.8827887 0.16855991 0.090734482
1.4142163 -7.873929 0.16621503 0.088389605
1.7365118 -7.8913956 0.17006966 0.060697384
1.8041443 -7.9024448 0.19942157 0.011138007
1.8890877 -7.887639 0.1945101 0.085137822
1.9470522 -7.8775258 0.20860088 0.027668819
2.0426502 -7.8672953 0.23344195 0.052509889
2.1108687 -7.8765197 0.225766 0.021382257
2.2077532 -7.8615203 0.22631487 0.021931127
2.2700481 -7.8572373 0.21949629 0.015112549
2.3591044 -7.8706141 0.23139803 0.010453552
2.4444366 -7.8705721 0.21210492 0.0088395625
2.5210359 -7.8771386 0.21604215 0.061220124
2.6037545 -7.8804417 0.22043997 0.0568223
2.6780121 -7.8960247 0.21701753 0.060244739
2.7359326 -7.8460097 0.23647594 0.15405619
1.822891 -7.813395 0.19106531 0.081693031
1.8934041 -7.8045201 0.20169945 0.09232717
1.949926 -7.7861156 0.20976353 0.028831467
2.0420008 -7.7818518 0.22443648 0.043504417
2.1260953 -7.7882633 0.22094448 0.016560733
2.2065563 -7.7924409 0.228239 0.023855254
2.2827563 -7.7902808 0.22648816 0.022104412
2.3475454 -7.7959704 0.22295305 0.0020085722
2.4229095 -7.7937989 0.21974814 0.0011963397
2.5143583 -7.7924294 0.21581753 0.061444744
2.6183584 -7.7747879 0.22375467 0.053507596
2.6751223 -7.796628 0.2176747 0.059587568
2.7593973 -7.7989855 0.2351021 0.15543003
1.8201991 -7.7075992 0.19485898 0.085486703
1.8909488 -7.7171493 0.18828356 0.078911282
1.9744953 -7.7168407 0.20170692 0.020774856
2.0249629 -7.7190142 0.20926853 0.028336465
2.1273055 -7.7149429 0.20293266 0.00145109
2.202487 -7.7288241 0.20470439 0.00032064319
2.292177 -7.724359 0.20371954 0.00066420436
2.3455918 -7.7187362 0.20047368 0.020470798
2.4242716 -7.7186937 0.20641546 0.01452902
2.5173774 -7.7297463 0.1963663 0.080895975
2.6177523 -7.7265821 0.21701826 0.060244009
2.6578374 -7.711916 0.22462024 0.052642033
2.7567503 -7.7080083 0.21148522 0.17904691
1.8113091 -7.6477685 0.18385692 0.098642774
1.8910909 -7.6543531 0.19215128 0.10693713
1.965698 -7.6451659 0.19475046 0.093314961
2.0372758 -7.6551399 0.18650748 0.085071981
2.1246793 -7.6454077 0.18258478 0.045132399
2.1999104 -7.641964 0.18093206 0.043479681
2.2847123 -7.6522512 0.17968877 0.042236388
2.3549016 -7.6422372 0.17547555 0.032568201
2.4191411 -7.6508017 0.18370768 0.040800333
2.5072157 -7.6337514 0.17932534 0.033685148
2.5981276 -7.6503553 0.18616971 0.026840776
2.6895554 -7.65838 0.21522026 0.0022097677
2.7490938 -7.6371388 0.20835711 0.14093815
1.8856773 -7.5645714 0.17812391 0.092909761
1.969985 -7.5580158 0.19870828 0.097272784
2.0282307 -7.5683093 0.19470118 0.093265682
2.1169133 -7.5699759 0.17705423 0.039601848
2.2125704 -7.5727725 0.16609225 0.028639868
2.2787778 -7.5931382 0.16530398 0.027851596
2.3405218 -7.5650949 0.17196986 0.02906251
2.430594 -7.5909271 0.19585186 0.052944511
2.5343513 -7.5715127 0.17737377 0.035636723
2.6072574 -7.5906219 0.17950924 0.033501253
2.6907384 -7.5540361 0.18473376 0.028276727
2.7626779 -7.5486441 0.20815775 0.14113751
2.8053062 -7.5256948 0.23581955 0.11347571
1.9784285 -7.4828224 0.19119135 0.11292707
2.0216677 -7.4842706 0.17763397 0.099369697
2.1105316 -7.4932208 0.19245411 0.10237419
2.1813257 -7.4940963 0.20115225 0.11107232
2.3686934 -7.4933143 0.16954303 0.077069767
2.4019005 -7.5069122 0.17268823 0.02978088
2.5348029 -7.4496512 0.16424122 0.021138325
2.7012508 -7.4786282 0.17201295 0.10317588
2.77583 -7.4655204 0.21798004 0.057208791
2.84356 -7.4729395 0.22373874 0.051450089
1.9788958 -7.422986 0.17365867 0.095394395
2.0250969 -7.4152479 0.16973563 0.091471352
2.6116788 -7.406426 0.18886684 0.04576394
2.7085626 -7.4207716 0.18212056 0.093068272
2.7605515 -7.4130931 0.21301049 0.062178344
2.8095138 -7.404439 0.22879036 0.046398476
2.7536952 -7.3203106 0.21161786 0.063570976
2.8202307 -7.3304443 0.20995641 0.065232426
2.7679493 -7.2583761 0.19954106 0.019397601
2.8342483 -7.2410116 0.21341529 0.0055233687
2.5365877 -7.1596212 0.16720875 0.052460194
2.6024079 -7.1463146 0.18556008 0.070811525
2.6519628 -7.1329498 0.19634944 0.08160089
2.7739944 -7.1596246 0.21989109 0.00095242262
2.8515418 -7.1452236 0.22018529 0.0012466311
2.8937874 -7.166255 0.21918365 0.00024498999
2.5367999 -7.0809402 0.1782649 0.068345629
2.5986552 -7.0616465 0.17032376 0.060404487
2.6658025 -7.0598159 0.19500458 0.08508531
2.7557847 -7.0661483 0.21337865 0.0026875585
2.8496163 -7.0792675 0.21889772 0.0082066208
2.8851602 -7.0842748 0.23599853 0.025307432
2.5475364 -7.009758 0.20282374 0.092904471
2.5870163 -7.0261502 0.17488627 0.064966999
2.6773365 -7.0169082 0.18984374 0.079924472
2.7513416 -7.0218663 0.21718757 0.0064964741
2.8506131 -7.022377 0.19135572 0.019335374
2.8928406 -7.0158515 0.21069109 0
1.1446393 -8.9788437 0.255867 0.060445905
1.2411872 -8.984972 0.27979225 0.08437115
1.3182489 -8.9794264 0.28791085 0.010235399
1.1695621 -8.9335003 0.259817 0.064395905
1.2400932 -8.9211874 0.26341626 0.067995161
1.3162049 -8.9179926 0.29219788 0.0059483647
1.3939593 -8.916996 0.30001852 0.0018722713
1.1801491 -8.8665972 0.26138628 0.07694824
1.2378752 -8.8469019 0.26183194 0.077393904
1.3034966 -8.8509665 0.2825045 0.019012153
1.3716674 -8.8648968 0.30416945 0.0406771
1.185591 -8.7349577 0.2445621 0.060124069
1.2102238 -8.7671089 0.2492373 0.064799264
1.340632 -8.7672081 0.27676475 0.013272405
1.3823849 -8.7292671 0.29814625 0.034653902
1.4567232 -8.7303534 0.3156389 0.052146554
1.1629094 -8.7128649 0.24792708 0.06348905
1.2424526 -8.6472073 0.29461551 0.13631891
1.3046341 -8.6845541 0.27176407 0.064984202
1.3985862 -8.6698065 0.30279654 0.096016675
1.4538726 -8.6680508 0.29119191 0.084412038
1.5684119 -8.6577349 0.28970608 0.018375397
1.7123113 -8.6525345 0.27506346 0.053631544
1.7951086 -8.6580429 0.26461184 0.064083159
1.1105262 -8.6342535 0.25701869 0.098722085
1.1785232 -8.5956535 0.28620645 0.12790985
1.2511407 -8.5926418 0.28563926 0.12734266
1.319106 -8.5932283 0.27285305 0.066073179
1.3990932 -8.5851183 0.27868161 0.071901739
1.4858121 -8.5988512 0.27841169 0.071631819
1.5628875 -8.5988035 0.26974773 0.0015829504
1.6381627 -8.597085 0.2930364 0.021705717
1.7115728 -8.6038237 0.28429905 0.044395953
1.794089 -8.5947123 0.28222257 0.04647243
1.8593352 -8.5950222 0.27539986 0.053295135
1.100522 -8.5271931 0.26349235 0.10519575
1.1652352 -8.5226469 0.27761528 0.11931868
1.2529761 -8.5094309 0.27107713 0.11278053
1.3179457 -8.5055914 0.27534831 0.068568438
1.3961263 -8.4988718 0.28008607 0.11883451
1.4764099 -8.4919004 0.27839619 0.11714463
1.5559858 -8.4991856 0.28007925 0.07607691
1.6575148 -8.5012941 0.28611439 0.01478371
1.7108676 -8.506238 0.2829507 0.0457443
1.8035668 -8.5071297 0.28518707 0.043507934
1.8654808 -8.5211782 0.27133068 0.057364315
1.0985687 -8.4543161 0.25918782 0.13322994
1.1784203 -8.4368229 0.25700814 0.12967679
1.2464414 -8.4462099 0.26224869 0.13491735
1.3168689 -8.4501209 0.26515487 0.10390331
1.4139827 -8.4618587 0.27416256 0.112911
1.4683253 -8.4729719 0.27923808 0.11798652
1.5509999 -8.4648752 0.28204921 0.078046873
1.6302506 -8.4627285 0.28285411 0.078851774
1.7235121 -8.4531803 0.2893925 0.012744963
1.810359 -8.4542894 0.28282017 0.0061726272
1.8670021 -8.4482708 0.28540325 0.0087557137
1.1165385 -8.395895 0.2919589 0.16462755
1.1604767 -8.3516121 0.27043709 0.14310575
1.2404783 -8.3360939 0.25655425 0.1292229
1.3381553 -8.3392973 0.24918251 0.087930948
1.393019 -8.3767233 0.26355353 0.10230197
1.5173367 -8.3709965 0.24608999 0.042087659
1.5632538 -8.3881063 0.24420898 0.040206641
1.623105 -8.3953495 0.31165645 0.10765411
1.7360699 -8.3659277 0.28651965 0.0098721087
1.8247532 -8.3435946 0.27377948 0.0028680563
1.8540485 -8.3368187 0.28081682 0.0041692853
1.1714396 -8.3145685 0.2591708 0.13183945
1.719931 -8.2771969 0.26725507 0.059295431
1.820766 -8.2859812 0.26558578 0.057626143
1.8619807 -8.2875299 0.27913734 0.071177706
1.9622265 -8.2727928 0.27714363 0.006724745
1.8225846 -8.20014 0.27458403 0.066624388
1.8851242 -8.2024689 0.28333479 0.075375155
1.9583027 -8.1882639 0.27353841 0.010329962
2.0190189 -8.1983414 0.29094049 0.0070721209
2.146858 -8.1914606 0.30614984 0.038232356
2.4292598 -8.2084799 0.31759691 0.077441037
1.8242073 -8.1218748 0.28335735 0.075397715
1.8816394 -8.1247692 0.27664754 0.068687901
1.9644516 -8.1233931 0.29036266 0.0064942837
2.1357968 -8.0927973 0.26695332 0.0027672052
2.1762581 -8.1125088 0.29870111 0.045681089
2.283464 -8.0983162 0.28283966 0.018653542
2.3557498 -8.1087208 0.30722889 0.087809056
2.4341722 -8.0930996 0.27029875 0.035851091
2.5874286 -8.1552687 0.30862427 0.13968214
2.7078907 -8.1108398 0.31804696 0.2251738
1.8195169 -8.0407333 0.27019358 0.081910014
1.8885056 -8.0270901 0.27136251 0.083078951
1.9709096 -8.0214081 0.29248396 0.068047479
2.0198343 -8.0198555 0.30687264 0.082436159
2.1100647 -8.0185432 0.31103036 0.046844244
2.207042 -8.0135279 0.30648154 0.042295426
2.2870457 -8.0192041 0.31174967 0.047563553
2.3484392 -8.0193529 0.30818087 0.0020310283
2.4307096 -8.0276089 0.30349237 0.0026574731
2.5328918 -8.0416231 0.29633722 0.075745791
2.5876107 -8.0133371 0.31281957 0.059263438
2.6744206 -8.0077991 0.27726227 0.094820738
1.8369154 -7.9587669 0.30119437 0.11291081
1.8867424 -7.9692292 0.27078915 0.082505584
1.9689937 -7.9743648 0.28386837 0.059431896
2.0343874 -7.9763718 0.29293558 0.068499103
2.1218011 -7.9685082 0.30083621 0.036650091
2.2025893 -7.964973 0.29342851 0.029242396
2.285187 -7.9766273 0.29703376 0.032847643
2.3498638 -7.9705882 0.29440233 0.011747509
2.424804 -7.9654212 0.29367295 0.012476891
2.5226798 -7.9665713 0.29325506 0.078827947
2.6042929 -7.9744287 0.30854911 0.063533902
2.6692035 -7.9448419 0.30240223 0.06968078
2.7533929 -7.9369097 0.28994709 0.1656667
1.8916345 -7.8908696 0.26718423 0.15781194
1.9499007 -7.8773975 0.2827999 0.10186784
2.0421641 -7.8811765 0.26875266 0.087820604
2.1198537 -7.8823457 0.27230719 0.067923442
2.194175 -7.8773708 0.26044041 0.056056663
2.2812588 -7.8782587 0.26341563 0.059031889
2.3498414 -7.8897066 0.26559317 0.044648692
2.4444046 -7.8793192 0.27199876 0.051054284
2.5210569 -7.9003549 0.27495417 0.097128838
2.6026766 -7.8893952 0.2734313 0.0038309693
2.6820517 -7.8834128 0.29264903 0.01538676
2.7297282 -7.8650718 0.29126066 0.099271476
1.8330188 -7.8340697 0.26109147 0.15171918
1.8949172 -7.7957501 0.27883172 0.16945943
1.9459394 -7.8033152 0.27762309 0.096691027
2.0519741 -7.8108473 0.26548052 0.084548458
2.1066909 -7.8051095 0.26418611 0.059802368
2.1996393 -7.8188028 0.26008683 0.055703089
2.2874742 -7.8266015 0.24925727 0.044873521
2.3485949 -7.8201041 0.24550924 0.024564758
2.4441652 -7.7952352 0.26153705 0.040592566
2.5078847 -7.7937856 0.25115278 0.026109487
2.6216414 -7.7966261 0.25355712 0.023705155
2.6704693 -7.7928772 0.26808703 0.009175241
2.7453508 -7.7986565 0.29462108 0.095911056
1.8845795 -7.7300167 0.27486983 0.16549754
1.9526056 -7.7192025 0.27103257 0.090100512
2.0362947 -7.716289 0.27461964 0.093687579
2.0883563 -7.7232933 0.25486931 0.073937252
2.1948199 -7.7068839 0.25654268 0.052158937
2.4021273 -7.7510605 0.24135901 0.020414531
2.6284008 -7.744926 0.24442442 0.032837853
2.6804159 -7.72645 0.26221648 0.015045792
2.7449732 -7.6987844 0.29514265 0.054152608
2.8486545 -7.734499 0.30699593 0.083536208
1.909403 -7.6552229 0.25164324 0.15020774
1.9653202 -7.6507025 0.26562417 0.16418867
2.0100803 -7.6626587 0.27384239 0.1724069
2.3440187 -7.6586947 0.24441059 0.10150324
2.6224649 -7.6620975 0.27320257 0.060192078
2.7114229 -7.6669388 0.2627452 0.086550057
2.7583952 -7.6485329 0.28892213 0.060373127
2.8168833 -7.6321106 0.2954447 0.053850561
1.9063083 -7.547266 0.24938567 0.14795017
1.9956996 -7.5945916 0.28133696 0.17990147
2.0137806 -7.5623765 0.2496227 0.14818721
2.6870327 -7.5559669 0.24286599 0.029855505
2.7836957 -7.5696006 0.27914798 0.070147276
2.8158672 -7.554688 0.29317129 0.056123972
2.0010614 -7.4774456 0.25181893 0.17355466
2.6891708 -7.5196471 0.25149962 0.038489133
2.7916214 -7.4574976 0.27518883 0
2.815798 -7.4660654 0.29021317 0.015024334
2.8899395 -7.4858003 0.2604669 0.01472193
2.786427 -7.4176359 0.27502659 0.00016224384
2.8119676 -7.4136696 0.28579536 0.010606527
2.8840065 -7.3849921 0.2662915 0.0088973343
2.7781639 -7.3403463 0.25207111 0.023117721
2.8392799 -7.3224282 0.29066539 0.015476555
2.8901155 -7.3110218 0.2846669 0.0094780624
2.7718387 -7.24189 0.26706007 0.048121408
2.8525791 -7.2358103 0.294238 0.075299338
2.8841643 -7.2284446 0.29396096 0.075022295
2.7774196 -7.1546731 0.2532059 0.034267232
2.8474746 -7.1574249 0.2974194 0.078480735
2.8932173 -7.1581092 0.29242033 0.073481664
2.9717677 -7.1263547 0.30567113 0.052863806
2.5875163 -7.0469718 0.25934175 0.14942247
2.7613828 -7.1132145 0.3005819 0.081643239
2.8558803 -7.0953779 0.29517481 0.084483713
2.8935933 -7.0746775 0.28856477 0.077873677
2.9696963 -7.0566773 0.28270909 0.012465715
2.5989118 -7.0125632 0.25956526 0.14964598
2.7672749 -7.0211248 0.25907823 0.04838714
2.8607788 -7.0231962 0.27798414 0.067293048
2.9017892 -7.0213289 0.29007229 0.0051025152
2.9752586 -7.0258813 0.30523881 0.010064006
1.4031816 -8.9778767 0.33276927 0.034623027
1.4921054 -8.9728346 0.36440253 0.066256285
1.5587658 -8.979228 0.3807146 0
1.3211477 -8.9536381 0.32182816 0.023681909
1.4073565 -8.9279652 0.34191 0.043763757
1.4805639 -8.9236107 0.35842162 0.060275376
1.5559636 -8.9311237 0.37757656 0.0031380355
1.627792 -8.9149084 0.3944838 0.013769209
1.4266618 -8.8270121 0.34700406 0.08351171
1.4845443 -8.8471222 0.3605029 0.097010553
1.5666765 -8.8450441 0.37935963 0.040109783
1.6392968 -8.854043 0.39494452 0.055694669
1.5045959 -8.7515574 0.34785268 0.0086028278
1.565105 -8.7672691 0.36333674 0.024086893
1.6321325 -8.7608242 0.38396192 0.044712067
1.3398428 -8.6442137 0.36637455 0.15959468
1.3990993 -8.6613331 0.35549164 0.14871177
1.4798537 -8.6742868 0.35854512 0.15176526
1.5624233 -8.6702547 0.34883609 0.07750541
1.6402259 -8.685276 0.35820892 0.08687824
1.7299137 -8.6410961 0.37547618 0.046781182
1.7915198 -8.6614075 0.32039994 0.0082950592
1.1805874 -8.5880651 0.34380701 0.18551041
1.2632515 -8.6219349 0.32464096 0.16634436
1.3083793 -8.5826178 0.3658725 0.15909263
1.3979473 -8.5950747 0.36004663 0.15326676
1.4739565 -8.605423 0.36567956 0.15889969
1.548646 -8.599947 0.35817018 0.086839497
1.6368854 -8.5927095 0.35501707 0.083686382
1.710693 -8.5887728 0.36287963 0.034184635
1.8189225 -8.6138096 0.35622519 0.027530193
1.171212 -8.4937038 0.33980238 0.21247104
1.2350979 -8.5071135 0.35394555 0.19564895
1.3141267 -8.5158548 0.34475276 0.13797289
1.4091823 -8.4981155 0.35475829 0.19350673
1.4827989 -8.5092192 0.33924985 0.13246998
1.55898 -8.5105228 0.34047896 0.069148272
1.6487267 -8.5083141 0.34188113 0.070550442
1.7137698 -8.5128813 0.34309822 0.014403224
1.8028866 -8.5126772 0.34676668 0.018071681
1.8688853 -8.5276394 0.35063395 0.02193895
1.9379801 -8.518259 0.36208495 0.085167259
1.170383 -8.4547119 0.32869086 0.20135951
1.2465502 -8.4519167 0.35077333 0.22344199
1.3292364 -8.4486742 0.36062852 0.19937696
1.394699 -8.4599915 0.3373197 0.17606814
1.4683282 -8.4697523 0.33176523 0.17051367
1.5558709 -8.4573689 0.328695 0.12469266
1.6602892 -8.4503813 0.35756955 0.15356721
1.7251782 -8.4430819 0.35891506 0.082267523
1.8082683 -8.456954 0.3459776 0.069330066
1.8674484 -8.444725 0.35702068 0.080373138
2.3336394 -8.4056473 0.38627753 0.12834868
2.4009123 -8.41294 0.39225677 0.12236944
1.3713045 -8.3920822 0.33514762 0.17389606
1.7312639 -8.3748617 0.33082899 0.054181457
1.8121933 -8.3642673 0.35151216 0.074864626
1.8681062 -8.3592463 0.35308501 0.076437473
1.9414197 -8.3714905 0.3505621 0.0088268518
2.0214691 -8.3219032 0.3456938 0.013695151
2.1363816 -8.3491621 0.38436291 0.066456825
2.2061059 -8.3519268 0.38822737 0.062592357
2.2589641 -8.33006 0.38974676 0.061072975
2.373677 -8.3474922 0.37217721 0.14244899
2.4132323 -8.3626919 0.39127627 0.12334993
2.5013733 -8.359086 0.37750754 0.17200443
2.6319423 -8.3439159 0.39370003 0.15581194
1.7951701 -8.2783537 0.3820039 0.17404427
1.872167 -8.2832031 0.34693161 0.13897197
1.9624202 -8.2853727 0.35938895 0.075520575
2.0285432 -8.2709579 0.3633182 0.079449832
2.2883596 -8.247407 0.39535514 0.050972939
2.3473344 -8.252573 0.39376169 0.0012762547
2.450453 -8.2598324 0.38882104 0.0062169135
2.5403819 -8.2495041 0.39523473 0.053071678
2.5778885 -8.2470846 0.39503795 0.053268462
1.7568054 -8.160923 0.38063321 0.17267357
1.8123634 -8.2093334 0.36477953 0.15681989
1.875829 -8.1991758 0.34524301 0.13728337
1.9572583 -8.2012253 0.36091718 0.077048808
2.0408227 -8.2040682 0.35926551 0.075397134
2.1307468 -8.1986408 0.38912341 0.044741213
2.1950724 -8.2011414 0.3855966 0.041214406
2.2845275 -8.2102613 0.38709337 0.042711169
2.3522558 -8.2094212 0.38371664 0.011321306
2.4287028 -8.2143364 0.38744903 0.007588923
2.5318377 -8.209465 0.38366517 0.064641237
2.6008565 -8.2119265 0.38653865 0.061767757
2.6615169 -8.1885567 0.38716024 0.06114617
2.7264397 -8.1682177 0.37723792 0.16598284
1.8055794 -8.1184483 0.3569302 0.14897056
1.8875794 -8.1175947 0.35852841 0.15056877
1.9764926 -8.1057835 0.36927575 0.085407376
2.0348783 -8.1106071 0.37690684 0.09303847
2.124073 -8.1150999 0.36583421 0.02145201
2.2007382 -8.1246576 0.36156246 0.017180264
2.282023 -8.1128674 0.35112995 0.0067477524
2.352464 -8.1256609 0.35595953 0.039078414
2.4460597 -8.110774 0.34579775 0.049240202
2.520659 -8.1198368 0.35912633 0.089180082
2.5980201 -8.1234951 0.36429846 0.084007949
2.6678352 -8.1165504 0.37475073 0.073555678
1.8284861 -8.0423441 0.36956307 0.18127951
1.8860036 -8.0318336 0.36588874 0.17760518
1.9727914 -8.0429068 0.34676293 0.12232645
2.037641 -8.0428638 0.34361365 0.11917718
2.1133449 -8.0331593 0.33105698 0.066870868
2.1903272 -8.051362 0.33681941 0.072633296
2.2862687 -8.0532637 0.32650983 0.062323719
2.3464453 -8.0571718 0.32831091 0.022161067
2.4320686 -8.0533352 0.34241191 0.036262065
2.5114436 -8.0476894 0.32564792 0.046435088
2.6146622 -8.024724 0.34109238 0.03099063
2.6635408 -8.0248671 0.35439637 0.017686635
2.7376194 -8.0491982 0.37964857 0.075965226
1.8887455 -7.9689026 0.35842773 0.17014417
1.9554636 -7.9684691 0.35538337 0.13094689
2.041297 -7.9678545 0.34627014 0.12183367
2.1202705 -7.977159 0.33417746 0.06999135
2.2133899 -7.9651113 0.3443822 0.080196083
2.2859256 -7.9512291 0.32837325 0.064187139
2.3270788 -7.9933047 0.36756733 0.06141749
2.4315212 -7.9509802 0.33324337 0.02709353
2.4957361 -7.9559808 0.3336412 0.027491361
2.6243465 -7.9847422 0.33247817 0.039604843
2.6711493 -7.9636893 0.34531236 0.026770651
2.7383475 -7.9611497 0.37458447 0.081029326
2.8010557 -7.9308028 0.33591399 0.11969981
1.8906163 -7.873589 0.35804087 0.24866858
1.9492837 -7.8892684 0.35698712 0.17605506
2.0335822 -7.8963852 0.3255316 0.14459954
2.0973573 -7.8880143 0.33363792 0.15270586
2.6989293 -7.8856335 0.34929526 0.072032988
2.7408299 -7.8813348 0.3690562 0.021475941
2.8158574 -7.8507757 0.37208301 0.018449128
1.9133126 -7.8222914 0.3640615 0.18312944
1.9635323 -7.8108244 0.33186156 0.1509295
2.6980047 -7.8069396 0.35106122 0.073798954
2.7604082 -7.8012104 0.35606435 0.034467787
2.8203049 -7.7605314 0.34799236 0.042539775
1.9031166 -7.7325854 0.33905873 0.15812667
1.9399964 -7.7361422 0.32861352 0.14768146
2.7002857 -7.7394032 0.35538492 0.03514722
2.7682889 -7.7051578 0.34850797 0.042024165
2.8174617 -7.7109857 0.36886695 0.021665186
2.8977268 -7.7395711 0.39224401 0.0017118752
2.7772446 -7.6427355 0.34709656 0.0021986961
2.8194494 -7.6373892 0.35454965 0.0052543879
2.9457343 -7.6394157 0.39847004 0.045194507
2.9725187 -7.6150393 0.39053214 0.053132415
2.781744 -7.5783582 0.35151014 0.0022148788
2.8285892 -7.5572391 0.35992095 0.01062569
2.9127166 -7.5725574 0.37131175 0.072352797
2.7710109 -7.4808254 0.37822205 0.10303321
2.8313489 -7.4885693 0.36475986 0.089571029
2.9390891 -7.4600172 0.35546091 0.034975588
2.7867467 -7.4031482 0.33776307 0.062574238
2.823108 -7.405107 0.34938058 0.074191749
2.9060621 -7.3979611 0.39014694 0.00028955936
2.9777691 -7.3775868 0.3897922 0.00064429641
2.7838125 -7.3231363 0.36792177 0.092732936
2.8366981 -7.3243051 0.36274016 0.087551326
2.9177501 -7.3109026 0.36292967 0.027506828
2.9734113 -7.359139 0.35070273 0.039733768
2.774199 -7.2319641 0.3551577 0.13621904
2.8502691 -7.2404776 0.35853493 0.13959627
2.9241686 -7.2263198 0.37801906 0.019484133
2.982167 -7.2232995 0.3904365 0.031901568
2.7807686 -7.159481 0.38692698 0.16798832
2.8477998 -7.1477137 0.33833888 0.11940022
2.9251742 -7.145123 0.37502325 0.016488314
2.9787467 -7.1640615 0.38475952 0.026224583
2.8602216 -7.0853457 0.34330073 0.13260964
2.9160261 -7.0865364 0.37016997 0.07499516
2.9774499 -7.0818739 0.37711644 0.081941634
2.8678954 -7.0233579 0.36437091 0.15367982
2.9071245 -7.0225801 0.3576349 0.062460095
2.9650426 -7.0337496 0.37307775 0.077902943
1.6403396 -8.9758911 0.43705666 0.056342065
1.7222713 -8.9818115 0.44871101 0.012092113
1.7776635 -8.9903088 0.45726624 0.00353688
1.5674994 -8.9338961 0.40689567 0.026181072
1.6471355 -8.9083958 0.41769826 0.036983669
1.7246616 -8.9174662 0.45155451 0.0092486143
1.8169026 -8.9216318 0.46258652 0.0017834008
1.8903357 -8.9022598 0.47728631 0.016483188
1.5857278 -8.8526859 0.41351125 0.074261397
1.646143 -8.8459339 0.42106116 0.081811309
1.716421 -8.8343544 0.44467416 0.031162918
1.8063203 -8.8393002 0.45776346 0.044252217
1.5325249 -8.7269163 0.40498468 0.065734833
1.6493886 -8.7598228 0.41406226 0.074812412
1.7037561 -8.7540741 0.43491322 0.021401972
1.8110589 -8.7486467 0.4635061 0.049994856
1.841513 -8.7909746 0.47612751 0.062616259
1.3897444 -8.6415806 0.40377077 0.19699091
1.5548365 -8.6703796 0.41118866 0.13985798
1.643635 -8.6539268 0.45090237 0.17957169
1.7214586 -8.6785994 0.44449666 0.11580166
1.7948903 -8.6585627 0.4473533 0.1186583
1.858689 -8.682498 0.46584335 0.13714835
1.3392297 -8.6101665 0.40967545 0.20289558
1.4074198 -8.5884304 0.42429909 0.21751922
1.490249 -8.5945511 0.43560073 0.22882086
1.5472566 -8.6012821 0.44305438 0.17172369
1.6346107 -8.5972433 0.44278598 0.17145529
1.7103602 -8.5927181 0.44183919 0.11314419
1.7884563 -8.5985308 0.44480014 0.11610514
1.8712648 -8.6000481 0.4434194 0.1147244
1.9301945 -8.5869951 0.41460946 0.032642752
2.204757 -8.5671024 0.46121693 0.067681253
2.2565506 -8.573699 0.4644278 0.064470381
2.5270271 -8.5791607 0.47611967 0.1398674
2.5748539 -8.5893106 0.46316385 0.15282321
1.3240898 -8.540554 0.41725618 0.21047631
1.4036012 -8.5180578 0.42447528 0.21769542
1.4950744 -8.4957027 0.4423019 0.28105032
1.556612 -8.4975967 0.45815468 0.25415236
1.6449292 -8.5029049 0.4599992 0.18866852
1.7095435 -8.4967241 0.468052 0.19140446
1.8089246 -8.5100784 0.44318783 0.11449283
1.8793644 -8.5201674 0.42933807 0.10064307
1.9564129 -8.507659 0.44874927 0.0014970601
2.0373793 -8.5278902 0.44912982 0.0018776059
2.1210122 -8.5077209 0.46562475 0.06327343
2.1823711 -8.5428524 0.45168695 0.077211231
2.2672751 -8.4992867 0.46317193 0.012352198
2.3627372 -8.5103159 0.45226911 0.14128724
2.4506328 -8.5219479 0.47444502 0.11911133
2.4996445 -8.5378447 0.45794639 0.13560995
2.592726 -8.5219765 0.46515825 0.15082881
1.3066088 -8.4231577 0.4032408 0.24198924
1.4158102 -8.4327297 0.4076151 0.24636354
1.4949206 -8.4688044 0.43769631 0.27644473
1.5531207 -8.4693928 0.44668865 0.24268632
1.6227961 -8.4700575 0.46518493 0.26118261
1.7154614 -8.4475451 0.44758669 0.17093915
1.8119889 -8.4529972 0.43708971 0.16044217
1.8816109 -8.4237337 0.44680813 0.17016059
1.9558451 -8.4429436 0.45671374 0.097324789
2.0406642 -8.4240665 0.46972364 0.11033469
2.1122844 -8.4169836 0.46184185 0.011022121
2.2145023 -8.4278984 0.46581799 0.014998257
2.2811143 -8.4249487 0.46656322 0.015743494
2.3505538 -8.4211321 0.46476558 0.049860626
2.433182 -8.4295616 0.46651894 0.048107266
2.5259776 -8.4429111 0.46498907 0.084522903
2.5905421 -8.4359064 0.45694715 0.092564821
2.6560616 -8.405302 0.44830769 0.10120428
1.6615961 -8.3891239 0.43769485 0.23369251
1.7243824 -8.3802853 0.44322664 0.1665791
1.8139533 -8.3513842 0.45366779 0.17702025
1.8761474 -8.3532047 0.43868396 0.16203642
1.9626242 -8.3449697 0.46727911 0.10789016
2.0316067 -8.3525209 0.4618313 0.10244235
2.1170032 -8.3486948 0.45037428 0.00044545531
2.2076252 -8.3604908 0.44475442 0.006065309
2.2817745 -8.3692503 0.44725221 0.0035675168
2.3576171 -8.3737774 0.44713253 0.067493677
2.4323139 -8.3675365 0.44620815 0.068418056
2.5309525 -8.3435926 0.43734759 0.11216438
2.5929835 -8.3594017 0.44619694 0.10331503
2.6496441 -8.3680687 0.44649377 0.10301819
1.8173196 -8.2864618 0.4605259 0.25256628
1.8789364 -8.2729731 0.46566877 0.25770915
1.9559027 -8.2832451 0.46484673 0.18097836
2.0319829 -8.2863331 0.45081973 0.16695136
2.1325514 -8.2718763 0.42404816 0.079665959
2.193383 -8.2718248 0.41764978 0.073267579
2.2879927 -8.277318 0.4133276 0.068945408
2.3487697 -8.2768755 0.41277885 0.017740905
2.4248056 -8.283041 0.41577351 0.020735562
2.5426877 -8.2821646 0.41485789 0.033448517
2.5857553 -8.2773066 0.41449782 0.033808589
2.6616688 -8.2809963 0.44179571 0.0065107048
1.7448486 -8.2289171 0.44630548 0.23834585
1.8135979 -8.1958971 0.43447477 0.22651513
1.8764924 -8.2039557 0.45308059 0.24512096
1.9667099 -8.198761 0.44703814 0.16316977
2.0233452 -8.2005949 0.44047815 0.15660977
2.1186399 -8.2113085 0.41584671 0.071464509
2.1951063 -8.213932 0.41354519 0.069162995
2.2627823 -8.2281809 0.40960005 0.065217853
2.3729298 -8.2221575 0.41736647 0.022328526
2.4253802 -8.2287865 0.40250492 0.0074669719
2.503958 -8.2107506 0.41831097 0.029995441
2.6143956 -8.2161894 0.41989967 0.028406739
2.664336 -8.1972761 0.4262822 0.022024214
1.8231444 -8.1202211 0.43394691 0.22598727
1.8768607 -8.113431 0.44365594 0.2356963
1.9575325 -8.1132908 0.4298113 0.14594293
2.0227952 -8.1234579 0.4260653 0.14219692
2.0961375 -8.1214533 0.41758472 0.13371634
2.183948 -8.1312904 0.41533971 0.070957512
2.2875197 -8.152606 0.40467986 0.060297668
2.6066091 -8.1361065 0.44955111 0.001244694
2.6801784 -8.1197996 0.43335164 0.014954776
2.7344372 -8.113451 0.41246897 0.13075179
1.8030322 -8.0409336 0.43644023 0.24815667
1.8851168 -8.0475349 0.43156797 0.2432844
1.9437042 -8.0663023 0.42432615 0.19988967
2.0348365 -8.0477047 0.41218999 0.18775351
2.0954382 -8.0294247 0.41836125 0.19392477
2.6353147 -8.0373259 0.47896445 0.10688144
2.692703 -8.049305 0.44235069 0.070267677
2.7503476 -8.0299997 0.44830641 0.0073073804
1.8294511 -7.9675608 0.42973429 0.24145073
1.8856422 -7.9702358 0.41791651 0.22963294
1.9403112 -7.9860725 0.4126761 0.18823962
2.0981798 -7.9987531 0.40611935 0.18168287
2.6994114 -7.9643159 0.43368128 0.061598271
2.7411664 -7.9430695 0.42075524 0.034858555
2.875953 -7.9288774 0.44408378 0.011530012
1.8350425 -7.9177718 0.40853724 0.22025368
1.8809351 -7.8924384 0.42755362 0.31818134
1.9374537 -7.8925366 0.40220869 0.22127663
2.6804771 -7.8798337 0.44373032 0.16646805
2.7480421 -7.8927226 0.42401829 0.033486158
2.8319426 -7.8769264 0.44707137 0.056539237
2.9134123 -7.8542962 0.4543367 0.0073657632
2.9735503 -7.8844719 0.4710474 0.0093449354
2.6925275 -7.796979 0.44251809 0.16525581
2.7564898 -7.8034344 0.44701594 0.056483805
2.8376346 -7.7920403 0.44900784 0.058475703
2.9173594 -7.7819548 0.46912217 0.0074197054
2.9780288 -7.7818885 0.46111229 0.00059017539
2.6873801 -7.7333097 0.4554944 0.17823213
2.7625723 -7.7023253 0.45561379 0.065081656
2.8539166 -7.7104397 0.46033061 0.06979847
2.9200687 -7.716785 0.45222145 0.0094810128
2.9785249 -7.7083993 0.45475546 0.0069470108
2.7684932 -7.6578684 0.45789021 0.10859495
2.8365388 -7.6573081 0.44568238 0.096387118
2.9224448 -7.6532812 0.44831443 0.0046498775
2.9742081 -7.6480093 0.45475101 0.011086464
2.7628269 -7.5672407 0.46141854 0.11212328
2.8414972 -7.5501385 0.42653465 0.077239394
2.9191825 -7.562849 0.42999989 0.013664663
2.9842029 -7.5677896 0.44518042 0.0015158653
2.7838058 -7.4961948 0.41686174 0.14167291
2.8387792 -7.4822187 0.41750586 0.14231703
2.9367468 -7.4663529 0.4313356 0.040899098
2.9785013 -7.4711814 0.4483296 0.057893097
2.859561 -7.4000244 0.41509992 0.13991109
2.9172475 -7.4119935 0.42181015 0.03137365
2.9775867 -7.4101491 0.44366455 0.05322805
2.8645115 -7.3504548 0.40796962 0.13278079
2.8971932 -7.33534 0.41714153 0.14195269
2.9838035 -7.3159385 0.45773464 0.067298144
2.8307023 -7.2033472 0.41094369 0.19200502
2.9946744 -7.2229633 0.43657586 0.078040928
2.8594453 -7.1701441 0.41019025 0.19125159
2.8995087 -7.1478052 0.40941507 0.1904764
2.8926518 -7.1190166 0.40589133 0.18695267
1.8101488 -8.9765034 0.49580991 0.035006791
1.8701938 -8.9781313 0.51152271 0.050719589
1.9479465 -8.9812546 0.54116458 0.0093747973
2.03403 -8.9870272 0.55720925 0.025419474
1.7255093 -8.8994713 0.48766708 0.074155837
1.796427 -8.9332876 0.49504584 0.034242719
1.8672845 -8.91786 0.50401437 0.043211251
1.9530208 -8.9205599 0.53011173 0.0016780496
2.0629594 -8.9121456 0.55825031 0.026460528
1.8192935 -8.8568535 0.5116272 0.098115951
1.8777744 -8.836709 0.51718485 0.10367361
1.9425173 -8.8415804 0.52802187 0.016394675
2.0140872 -8.8217869 0.55305064 0.04142344
1.8126845 -8.7587576 0.51200771 0.098496467
1.8774482 -8.7536125 0.52003264 0.1065214
1.9624208 -8.7680836 0.53750265 0.025875449
1.5920935 -8.6427498 0.51663673 0.24530604
1.7253826 -8.6641779 0.51188719 0.18319219
1.7917589 -8.6812439 0.51163369 0.18293869
1.8809127 -8.6886644 0.51887649 0.19018149
1.9660251 -8.669281 0.51819795 0.07094574
2.0394039 -8.6632147 0.52021545 0.072963238
2.1153307 -8.6775856 0.5591374 0.030239224
2.2436466 -8.6419802 0.55932659 0.03042841
2.3795149 -8.6589565 0.54249913 0.05105722
2.4341412 -8.6604109 0.5409044 0.052651942
2.5241582 -8.6624174 0.52670085 0.089286208
2.5716646 -8.6746235 0.519436 0.096551061
1.5667301 -8.5942955 0.50802106 0.23669037
1.6517961 -8.5908442 0.51395643 0.24262574
1.7344958 -8.598526 0.53213006 0.20343506
1.7871653 -8.5960054 0.53002566 0.20133066
1.8722107 -8.607398 0.53892428 0.21022928
1.9515743 -8.5908022 0.5165112 0.069258988
2.031224 -8.598505 0.53305459 0.085802376
2.1269271 -8.5878105 0.52899778 9.9599361e-05
2.1981881 -8.5787458 0.51763952 0.011258662
2.2802017 -8.5874119 0.53905481 0.010156631
2.3517225 -8.5874252 0.52971709 0.063839257
2.4322963 -8.5907745 0.53117651 0.062379837
2.5262959 -8.5962629 0.53478038 0.081206679
2.601115 -8.5982027 0.5175035 0.098483562
2.6471112 -8.5810318 0.53662789 0.079359174
1.5113121 -8.5174618 0.49246231 0.22113162
1.5714924 -8.5013208 0.49395734 0.22262666
1.6575363 -8.5089722 0.49555066 0.22421998
1.7183181 -8.4977474 0.49801385 0.22136632
1.7991548 -8.5022202 0.5214622 0.1927672
1.8717959 -8.5095501 0.53035825 0.20166326
1.9713229 -8.5133524 0.54600281 0.098750591
2.0287707 -8.5182142 0.54324323 0.095991015
2.1144547 -8.5250053 0.52889818 0
2.1934063 -8.5203857 0.5139786 0.014919579
2.2894585 -8.5210657 0.51072311 0.018175066
2.352387 -8.5164671 0.50770873 0.085847616
2.4265039 -8.5268612 0.51090544 0.0826509
2.5220294 -8.5259094 0.51710588 0.098881185
2.5885901 -8.5259609 0.52735037 0.088636696
2.6545064 -8.5330896 0.54951197 0.066475093
1.6435187 -8.4636269 0.48721424 0.28321189
1.73599 -8.4529305 0.50169319 0.22504565
1.8106579 -8.4507093 0.51731998 0.24067244
1.874119 -8.4498425 0.52622414 0.2495766
1.9676406 -8.4360352 0.5109728 0.15158385
2.0378191 -8.4417534 0.499733 0.14034405
2.1281848 -8.4530191 0.49964747 0.048827738
2.2038667 -8.4477425 0.50091118 0.050091445
2.2814026 -8.4543781 0.4887853 0.037965566
2.3491147 -8.4463921 0.49702346 0.017602742
2.4313905 -8.4338646 0.50928146 0.0053447485
2.5265365 -8.4449663 0.5146262 0.034885764
2.6035845 -8.4289923 0.52924949 0.02026248
2.6576505 -8.4593544 0.54000473 0.0095072389
1.6534556 -8.3991356 0.48783216 0.28382981
1.7377561 -8.396944 0.52901781 0.25237027
1.8253845 -8.3503695 0.51361877 0.23697123
1.8778273 -8.3518219 0.50744885 0.23080131
1.944268 -8.3603735 0.49009398 0.13070503
2.0303071 -8.3672276 0.50181401 0.14242506
2.1176665 -8.3785009 0.50506175 0.054242015
2.1852071 -8.3660803 0.48349667 0.032676935
2.3564191 -8.3666725 0.50513142 0.0094947815
2.5464764 -8.3677759 0.53900194 0.010510027
2.6115768 -8.3557386 0.52894622 0.020565748
2.6669118 -8.3592787 0.52469462 0.024817348
1.8283494 -8.2977123 0.50822669 0.30026704
1.864908 -8.2871466 0.49808112 0.2901215
1.9281309 -8.2949638 0.48326144 0.19939306
2.1402771 -8.261776 0.48825732 0.14387512
2.2618885 -8.2969971 0.48236886 0.13798666
2.5385916 -8.2922611 0.4866378 0.038331389
2.6208837 -8.2980862 0.53850204 0.090195626
2.6609063 -8.2743568 0.53791517 0.089608759
1.8126128 -8.2004681 0.50844145 0.3004818
1.8601906 -8.2143984 0.50056988 0.29261023
1.9325739 -8.1600695 0.48519865 0.20133027
2.5570793 -8.2355862 0.48968744 0.041381031
2.6129501 -8.204319 0.52607822 0.077771813
2.6796324 -8.1987333 0.52116007 0.072853655
2.7423117 -8.1969805 0.5161736 0.027047157
1.8290535 -8.1281137 0.51781195 0.3098523
1.8589669 -8.1290722 0.50499129 0.29703164
1.9404221 -8.0971851 0.48717102 0.26273453
2.6192937 -8.135211 0.52359158 0.075285167
2.6888504 -8.1134005 0.51756632 0.069259912
2.7436688 -8.1072264 0.53479695 0.0084238052
2.8357422 -8.1206923 0.55643797 0.013217211
2.9142914 -8.1018696 0.54488313 0.031073749
1.8267815 -8.0370159 0.49787551 0.30959195
1.86586 -8.0315237 0.50088829 0.31260473
2.6243613 -8.0380325 0.52895981 0.1568768
2.6878605 -8.0259447 0.53507775 0.16299474
2.7370155 -8.0342693 0.52813113 0.072517335
2.8468511 -8.0285149 0.5450666 0.089452803
2.9273198 -8.0387802 0.53788865 0.016366601
2.982197 -8.0125027 0.55125511 0.029733062
1.8673975 -7.9584742 0.50167966 0.3133961
2.6285472 -7.9499235 0.5216912 0.14960819
2.6934481 -7.9689183 0.54489207 0.17280906
2.7528372 -7.9536614 0.53267545 0.077061653
2.8547609 -7.9549451 0.51947188 0.063858092
2.9398577 -7.9554396 0.54084182 0.019319773
2.9796379 -7.9578552 0.53680241 0.015280366
2.694664 -7.8807831 0.53638899 0.25912672
2.7488256 -7.8689532 0.52850759 0.13797545
2.8414164 -7.8798566 0.52195501 0.13142288
2.9265859 -7.8823266 0.50938052 0.047678053
2.9752066 -7.8947935 0.50983787 0.0481354
2.7134368 -7.7812347 0.53449392 0.14396179
