# .PCD v0.7 - Point Cloud Data file format
VERSION 0.7
FIELDS x y z intensity
SIZE 4 4 4 4
TYPE F F F F
COUNT 1 1 1 1
WIDTH 1053
HEIGHT 1
VIEWPOINT 0 0 0 1 0 0 0
POINTS 1053
DATA ascii
-1.8037198 -1.573907 -0.40476355 0.057215214
-1.7131826 -1.5473996 -0.40814754 0.060599208
-1.6324872 -1.5540245 -0.40847206 0.057392806
-1.5532249 -1.567265 -0.4091906 0.05811134
-1.4798644 -1.5587608 -0.414419 0.007366389
-1.4000703 -1.5530519 -0.41653883 0.0094862282
-1.3213348 -1.5585852 -0.41699845 0.0099458396
-1.2397435 -1.561157 -0.41894114 0.0099844038
-1.155322 -1.5581187 -0.42406768 0.01511094
-1.085953 -1.5641047 -0.42711395 0.063539922
-1.0198848 -1.5410051 -0.42988557 0.066311538
-1.7924643 -1.485474 -0.4045943 0.066242456
-1.7357098 -1.4718167 -0.40653244 0.068180591
-1.6364673 -1.4779785 -0.40834525 0.059016943
-1.5507424 -1.4836922 -0.40935227 0.060023963
-1.480193 -1.4835423 -0.41131309 0.034567535
-1.3971783 -1.4798652 -0.41182467 0.035079122
-1.3240024 -1.4806108 -0.41675743 0.040011883
-1.2429006 -1.4776224 -0.41991314 0.0080663264
-1.1612587 -1.4832773 -0.42146361 0.0096167922
-1.0730178 -1.4785295 -0.43505323 0.037402153
-1.0211315 -1.4788568 -0.43804026 0.04038918
-1.7862514 -1.4022477 -0.40648806 0.068136215
-1.7168417 -1.3988436 -0.4038806 0.06552875
-1.6526086 -1.3926116 -0.40900949 0.059681177
-1.5494679 -1.4010077 -0.40808943 0.05876112
-1.4788513 -1.3969226 -0.4110271 0.034281552
-1.3987676 -1.3998486 -0.41290238 0.036156833
-1.3164625 -1.4001592 -0.41748691 0.040741354
-1.2440516 -1.397671 -0.41645703 0.0046102107
-1.1639982 -1.3945383 -0.42906284 0.017216027
-1.0798341 -1.4002341 -0.43223494 0.034583867
-1.0185387 -1.3953658 -0.4353075 0.037656426
-1.8445783 -1.2985644 -0.40346262 0.10905606
-1.8110949 -1.3335069 -0.40214491 0.063793063
-1.7186874 -1.3178357 -0.40638754 0.068035692
-1.6491299 -1.3214697 -0.40266532 0.053337008
-1.5496602 -1.3223259 -0.40819773 0.058869421
-1.4775984 -1.3162984 -0.41102889 0.03428334
-1.3962041 -1.3221533 -0.41476288 0.038017333
-1.320708 -1.3209705 -0.412128 0.03538245
-1.2358608 -1.3188968 -0.42029187 0.0084450543
-1.1565427 -1.3181946 -0.42674133 0.014894515
-1.0812401 -1.3231149 -0.43104482 0.033393741
-1.0184641 -1.3205661 -0.42955798 0.031906903
-1.7774602 -1.2291644 -0.40337703 0.10897046
-1.7391739 -1.2541366 -0.40209177 0.10768521
-1.6288064 -1.2459295 -0.40674323 0.059434235
-1.5564564 -1.2387586 -0.41013467 0.06282568
-1.4819233 -1.2416582 -0.41024178 0.044237018
-1.4069328 -1.2432914 -0.41088694 0.044882178
-1.3216757 -1.2343783 -0.41694093 0.050936162
-1.2396226 -1.2380587 -0.42363816 0.012611061
-1.1600381 -1.2404311 -0.42758542 0.016558319
-1.0854019 -1.2419616 -0.42837408 0.02010262
-1.0198952 -1.2401093 -0.42685756 0.018586099
-1.6919304 -1.1805302 -0.40477243 0.057463437
-1.6417904 -1.1546968 -0.40895915 0.061650157
-1.5578493 -1.1622487 -0.4089199 0.061610907
-1.4730687 -1.1612073 -0.41004395 0.04403919
-1.3916336 -1.1607922 -0.41184682 0.045842052
-1.318234 -1.1575131 -0.41958377 0.053579003
-1.2351259 -1.1586642 -0.4210521 0.010024995
-1.158758 -1.1599511 -0.42342079 0.012393683
-1.0825931 -1.1641818 -0.42327309 0.015001625
-1.0204571 -1.1571168 -0.41516814 0.0068966746
-1.603173 -1.0821837 -0.41605303 0.071147293
-1.5587789 -1.0781572 -0.40828809 0.063382357
-1.4853008 -1.0845999 -0.40882009 0.043300956
-1.3983778 -1.0810862 -0.41382256 0.048303425
-1.3187468 -1.0832708 -0.41689593 0.05137679
-1.240689 -1.0821099 -0.41715452 0.0082968771
-1.1611247 -1.0841799 -0.41584325 0.0069856048
-1.0723774 -1.0777844 -0.41529521 0.0061730742
-1.0228083 -1.0840718 -0.42299575 0.013873607
-1.9433203 -1.0076569 -0.40012738 0.17332593
-1.541546 -1.0234641 -0.40820545 0.063299716
-1.4753895 -1.0249138 -0.40874234 0.043223202
-1.3971236 -1.0199242 -0.41724434 0.051725209
-1.3200262 -1.0188428 -0.41624278 0.050723642
-1.2459008 -1.0244033 -0.41608506 0.0072274208
-1.1722329 -1.0232487 -0.41253871 0.0036810637
-1.0790374 -1.0188721 -0.41733667 0.0082145333
-1.0220411 -1.0277379 -0.41359967 0.0044775307
-2.5639873 -2.9725695 -0.32383579 0.44434038
-2.4895973 -2.9780989 -0.328933 0.29925475
-2.4451537 -2.9733982 -0.32536981 0.29569155
-2.2477639 -2.9860477 -0.35894942 0.12641224
-2.2036955 -2.9809411 -0.34129047 0.10875329
-2.118717 -2.9820642 -0.34323099 0.11069381
-2.0417235 -2.9831717 -0.34541342 0.0096201003
-1.9637791 -2.9801681 -0.34514412 0.0093508065
-1.8881179 -2.9845431 -0.34450737 0.0026668012
-1.7949847 -2.9799531 -0.34341207 0.0037620962
-1.7152063 -2.9836936 -0.3470366 0.00013756752
-1.6372781 -2.9824135 -0.35350117 0.0052926838
-1.5627581 -2.9824181 -0.35309219 0.0057016611
-1.4805486 -2.983459 -0.35295123 0.073189855
-1.3998573 -2.97876 -0.36518964 0.085428268
-1.3187543 -2.9780533 -0.36951682 0.089755446
-1.2390052 -2.9809656 -0.37233499 0.32707366
-1.189186 -2.9771745 -0.3464101 0.30114877
-2.4889746 -2.9416053 -0.33048582 0.30080757
-2.4420238 -2.9128513 -0.32751292 0.29783466
-2.1915822 -2.915206 -0.33579332 0.10325614
-2.1207047 -2.9214225 -0.33974603 0.10720885
-2.0390553 -2.9223189 -0.34316543 0.0073721111
-1.962985 -2.9198103 -0.34289718 0.0071038604
-1.8945059 -2.9253533 -0.33843586 0.0087383091
-1.7855432 -2.9333429 -0.34513554 0.0020386279
-1.7155792 -2.9507418 -0.35023189 0.0030577183
-1.6372175 -2.9186091 -0.34732547 0.011468381
-1.5606489 -2.9183056 -0.35355192 0.0052419305
-1.4798527 -2.9251666 -0.35879385 0.079032481
-1.3987035 -2.9190381 -0.36401033 0.08424896
-1.3170639 -2.9150708 -0.36860159 0.088840216
-1.2390805 -2.9190042 -0.37275687 0.32749555
-1.1817311 -2.9156833 -0.34915304 0.30389172
-2.4351239 -2.8304465 -0.32665676 0.28364086
-2.3728738 -2.8301787 -0.3309975 0.2879816
-2.2653506 -2.8447421 -0.32997948 0.051489443
-2.1944041 -2.8451998 -0.33485746 0.056367427
-2.1242917 -2.8408887 -0.33860224 0.060112208
-2.0361717 -2.8439689 -0.34116799 0.011961818
-1.9682705 -2.8458111 -0.34645295 0.017246783
-1.9045204 -2.8542454 -0.32752535 0.0016808212
-1.6145144 -2.8734887 -0.35145488 0.0018633008
-1.5529807 -2.8437915 -0.35530549 0.0019873083
-1.4774311 -2.8349311 -0.35845068 0.035663933
-1.4028925 -2.8387966 -0.36089072 0.038103968
-1.3226717 -2.8424616 -0.36608195 0.043295205
-1.2354205 -2.836818 -0.36885095 0.25462699
-1.1694937 -2.8377168 -0.35608798 0.24186401
-2.5819807 -2.7499535 -0.32953456 0.4494161
-2.5136778 -2.7542233 -0.32410255 0.44398409
-2.4387333 -2.7578878 -0.32830024 0.28528434
-2.3534942 -2.7625525 -0.32899249 0.28597659
-2.2875137 -2.7540216 -0.32920617 0.050716132
-2.1853673 -2.7664421 -0.33000317 0.051513135
-2.1196587 -2.7587216 -0.33705038 0.058560342
-2.0432041 -2.7693181 -0.34274292 0.013536751
-1.9752626 -2.7655079 -0.34602159 0.016815424
-1.5507839 -2.7583313 -0.34778994 0.0055282414
-1.4791132 -2.7675471 -0.35235971 0.029572964
-1.3975503 -2.7519135 -0.35777712 0.03499037
-1.3174529 -2.7555516 -0.36121479 0.038428038
-1.2415395 -2.7581649 -0.36799911 0.25377512
-1.1571964 -2.7557802 -0.35729656 0.24307258
-2.5100644 -2.6831899 -0.32674763 0.45434791
-2.4340422 -2.6961644 -0.32951635 0.2816267
-2.3571241 -2.6904089 -0.32664216 0.27875251
-2.2753658 -2.6832108 -0.32974881 0.11266494
-2.2291746 -2.6786478 -0.33025897 0.11317509
-2.1193762 -2.6894825 -0.33665338 0.11956951
-2.0415599 -2.681067 -0.34254605 0.043705255
-1.9797598 -2.6854374 -0.33928698 0.040446192
-1.6293277 -2.6406026 -0.32373482 0.0060446262
-1.5598919 -2.6440885 -0.32749602 0.0022834241
-1.45084 -2.6847913 -0.35067937 0.01985085
-1.3967489 -2.6828632 -0.35473859 0.023910075
-1.3148344 -2.6810226 -0.35980999 0.028981477
-1.2411761 -2.6778483 -0.36346829 0.16657586
-1.1538081 -2.6833704 -0.3621594 0.16526698
-1.1137631 -2.6659839 -0.34835789 0.15146546
-2.2772496 -2.6373565 -0.3348141 0.11773023
-2.0307491 -2.601491 -0.34035966 0.041518867
-1.9747882 -2.5999265 -0.3413693 0.04252851
-1.5627968 -2.6056485 -0.32717136 0.0026080906
-1.4489473 -2.6369386 -0.34874579 0.017917275
-1.390627 -2.6093264 -0.35331818 0.022489667
-1.317868 -2.6091275 -0.36248675 0.031658232
-1.2385141 -2.5977869 -0.36666191 0.16976948
-1.1572711 -2.5995893 -0.36871931 0.17182688
-1.1076518 -2.5963504 -0.34943667 0.15254425
-2.2210984 -2.5303681 -0.321448 0.10436413
-2.0269849 -2.5204694 -0.33509579 0.036255002
-1.9836835 -2.5179496 -0.33991843 0.041077644
-1.8633612 -2.4818416 -0.32018304 0.0070443153
-1.7936614 -2.4819183 -0.32533371 0.0018936396
-1.7239357 -2.4984303 -0.32902426 0.0017969012
-1.6398261 -2.5152357 -0.33119044 0.001410991
-1.5662394 -2.5109203 -0.3256613 0.0041181445
-1.4725559 -2.5456223 -0.32278675 0.0080417693
-1.4384724 -2.5587418 -0.32181028 0.0090182424
-1.304372 -2.5150454 -0.3476724 0.016843885
-1.243518 -2.5195732 -0.36249828 0.16560586
-1.1595285 -2.5192473 -0.36827692 0.1713845
-1.1001705 -2.5200586 -0.35755539 0.16066296
-2.0900626 -2.4385071 -0.33421323 0.045141548
-2.0355999 -2.4403701 -0.33774644 0.048674762
-1.9886644 -2.4415469 -0.33432233 0.045250654
-1.8941015 -2.4115222 -0.33272615 0.0054987967
-1.7874324 -2.4385951 -0.32688418 0.00034317374
-1.7154649 -2.4502072 -0.32789087 0.00066351891
-1.6397198 -2.4398232 -0.32784763 0.0029808879
-1.5710769 -2.4335706 -0.32816216 0.0026663542
-1.4590311 -2.4337332 -0.33127013 0.0081624985
-1.396207 -2.4318144 -0.33082852 0.0086041093
-1.3135632 -2.4442153 -0.33732429 0.0021083355
-1.238833 -2.4423435 -0.36130244 0.082505763
-1.1613678 -2.4439538 -0.36843923 0.089642555
-1.0831134 -2.4373505 -0.35726902 0.31646279
-2.0871532 -2.3942182 -0.32987082 0.040799141
-2.0353506 -2.360862 -0.33569777 0.046626091
-1.9730178 -2.3583713 -0.33590892 0.04683724
-1.8665186 -2.3604352 -0.32952458 0.0022972226
-1.8049489 -2.3525145 -0.33885524 0.011627883
-1.7226381 -2.3588398 -0.32911658 0.0018892288
-1.632984 -2.3449454 -0.32722735 0.0036011636
-1.5522652 -2.3391793 -0.33613133 0.0053028166
-1.4812537 -2.3501451 -0.3346844 0.0047482252
-1.3991858 -2.3559525 -0.32977945 0.0096531808
-1.3072478 -2.3522251 -0.3358815 0.0035511255
-1.2412517 -2.3548737 -0.35988486 0.081088185
-1.1601565 -2.3575473 -0.36843306 0.089636385
-1.070842 -2.3629155 -0.36572033 0.3249141
-1.030411 -2.3405797 -0.34485775 0.30405152
-2.0316496 -2.2804344 -0.33529431 0.047638863
-1.9813966 -2.2926188 -0.33301538 0.045359939
-1.8629822 -2.283488 -0.33961883 0.011727959
-1.7139734 -2.2568388 -0.32999152 0.0021006465
-1.6337537 -2.2694762 -0.34307387 0.0067714453
-1.5481188 -2.274734 -0.33955538 0.0032529533
-1.4865073 -2.2786238 -0.34958452 0
-1.4161171 -2.2781405 -0.33265066 0.016933858
-1.3040218 -2.266572 -0.33630243 0.01328209
-1.2446934 -2.2797847 -0.35945195 0.04627654
-1.1601707 -2.2819021 -0.36152592 0.048350513
-1.0761976 -2.2794476 -0.36674488 0.24360675
-1.019691 -2.2793336 -0.35390711 0.23076898
-2.0891366 -2.2195611 -0.32881027 0.041154832
-2.0612941 -2.2021749 -0.32764712 0.039991677
-1.8928988 -2.2157285 -0.3394641 0.011573225
-1.7794669 -2.2058001 -0.34469894 0.016808063
-1.735811 -2.2065361 -0.33576661 0.0078757405
-1.6444938 -2.1930203 -0.34348503 0.0071825981
-1.5499039 -2.2011218 -0.34842268 0.012120247
-1.4842021 -2.1976197 -0.33935574 0.010228783
-1.3858104 -2.1910999 -0.33943263 0.010151893
-1.3184006 -2.1959755 -0.34733555 0.0022489727
-1.2431753 -2.1974277 -0.36017486 0.046999454
-1.1589123 -2.1968136 -0.36257815 0.049402744
-1.0790212 -2.1980805 -0.36851868 0.24538055
-1.0177866 -2.2050266 -0.36982194 0.24668381
-1.8448886 -2.1414576 -0.34392905 0.016038179
-1.7925019 -2.113802 -0.3423956 0.014504731
-1.7094227 -2.1042235 -0.35041201 0.022521138
-1.6385958 -2.1182914 -0.33628565 1.6778708e-05
-1.5575016 -2.1204023 -0.33910742 0.0028049946
-1.4667392 -2.1047761 -0.34657276 0.0030117631
-1.3951064 -2.1164939 -0.34905252 0.00053200126
-1.3206986 -2.1211264 -0.35755429 0.0079697669
-1.2365934 -2.1201851 -0.35625672 0.043081313
-1.1601992 -2.1202981 -0.36100307 0.047827661
-1.0782738 -2.119978 -0.36718848 0.24405035
-1.020759 -2.1202912 -0.37265506 0.24951693
-1.8025285 -2.0370328 -0.33440667 0.0037727952
-1.716974 -2.0481784 -0.34311965 0.004940182
-1.6381 -2.0373404 -0.33817947 0.0097185075
-1.5522105 -2.029526 -0.34054297 0.0073550045
-1.4705256 -2.0344987 -0.34851342 0.0092128515
-1.4043158 -2.0407095 -0.35176256 0.0059637129
-1.3206694 -2.0393703 -0.3527979 0.0049283803
-1.236922 -2.0388503 -0.35772628 0.0004055202
-1.1607755 -2.0394042 -0.36083397 0.003513217
-1.0782518 -2.0389738 -0.36532247 0.086860746
-1.0189457 -2.042428 -0.36891508 0.090453357
-2.6056504 -1.9533397 -0.33772495 0.46175516
-2.5453608 -1.9411302 -0.33443704 0.45846725
-1.9728947 -1.9562947 -0.33134201 0.029018581
-1.8508213 -1.9491669 -0.32770661 0.010472864
-1.7953 -1.9516275 -0.33910438 0.00092491508
-1.7219156 -1.9455688 -0.34214118 0.0039617121
-1.6378194 -1.9495386 -0.34189773 0.0060002506
-1.5553091 -1.9525406 -0.34613013 0.001767844
-1.4818727 -1.9626067 -0.3522265 0.0054997802
-1.39877 -1.9609586 -0.34940115 0.0083251297
-1.3198681 -1.95683 -0.35231611 0.0054101646
-1.2404333 -1.9631001 -0.35360059 0.0037201643
-1.1595865 -1.9609538 -0.35732076 0
-1.0784634 -1.9593662 -0.36334521 0.084883481
-1.0207081 -1.956728 -0.36800557 0.089543849
-2.6029043 -1.885952 -0.34282514 0.46348929
-2.4241002 -1.8451647 -0.33972415 0.29475772
-2.376997 -1.8490129 -0.33444512 0.28947869
-2.2705421 -1.8452435 -0.3297475 0.11950073
-2.1074324 -1.8699377 -0.32460788 0.11436111
-2.0436502 -1.8839169 -0.32357621 0.015341222
-1.8680912 -1.8784786 -0.3489759 0.002045542
-1.7996186 -1.8817304 -0.34737965 0.00044929981
-1.7193387 -1.8828741 -0.3503035 0.0033731461
-1.6366465 -1.8779554 -0.35076073 0.00031852722
-1.5587969 -1.8836789 -0.34789798 0.0031812787
-1.4792187 -1.8793868 -0.34663278 0.054423392
-1.4014169 -1.881991 -0.34602046 0.05503571
-1.3214753 -1.8786316 -0.35079172 0.050264448
-1.2408106 -1.8808113 -0.35229892 0.017290056
-1.1597937 -1.8791039 -0.35555923 0.014029741
-1.082098 -1.8776824 -0.36197367 0.0057147443
-1.0201106 -1.8806816 -0.36721423 0.010955304
-2.6082451 -1.8175014 -0.33400711 0.45467126
-2.5488594 -1.8161697 -0.33742467 0.45808882
-2.4215264 -1.813727 -0.33732405 0.29235762
-2.3699625 -1.8257071 -0.34927747 0.30431104
-2.2684588 -1.7765734 -0.35958782 0.14934105
-2.1874716 -1.7826588 -0.34875807 0.1385113
-2.117332 -1.7848697 -0.33969182 0.12944505
-2.0340202 -1.786605 -0.32813364 0.019898653
-1.9384136 -1.78128 -0.36281079 0.054575801
-1.8802227 -1.803274 -0.35319749 0.0062671304
-1.7989455 -1.8004714 -0.34615001 0.00078034401
-1.7182714 -1.8010442 -0.3472755 0.0003451407
-1.6384877 -1.8002391 -0.34305778 0.0080214739
-1.5600666 -1.8021849 -0.34807011 0.0030091405
-1.4806587 -1.8016399 -0.34763563 0.053420544
-1.3996575 -1.798408 -0.34556434 0.055491835
-1.3194979 -1.8002115 -0.35122162 0.049834549
-1.2398317 -1.8011944 -0.35165915 0.017929822
-1.1593741 -1.8008389 -0.35667223 0.012916744
-1.0798594 -1.8020456 -0.3599433 0.0036843717
-1.0202863 -1.8011774 -0.35916129 0.0029023588
-2.3270645 -1.7298785 -0.36547622 0.32050979
-2.2802293 -1.7232193 -0.35508585 0.14483908
-2.2015584 -1.7172397 -0.35301366 0.14276689
-2.1245761 -1.7281029 -0.34881705 0.13857028
-2.0385146 -1.7092776 -0.33591089 0.027675897
-1.9522719 -1.7145462 -0.34947354 0.041238546
-1.8812668 -1.7212589 -0.34854659 0.0016162395
-1.7983023 -1.7188598 -0.34669393 0.00023642182
-1.7205902 -1.7194707 -0.34488881 0.0020415485
-1.64064 -1.7188516 -0.34693035 0.0041489005
-1.5620848 -1.7188145 -0.34995919 0.0011200607
-1.4804065 -1.7178445 -0.34547794 0.055578232
-1.3979223 -1.7174605 -0.34582549 0.055230677
-1.3191411 -1.7205049 -0.35038832 0.050667852
-1.2398548 -1.721857 -0.35147095 0.018118024
-1.1582583 -1.7197553 -0.35437644 0.015212536
-1.0790619 -1.717739 -0.3605049 0.0042459667
-1.0196345 -1.717903 -0.36649477 0.010235846
-2.5876236 -1.6111577 -0.32312825 0.44169202
-2.3319793 -1.657937 -0.35122463 0.31373906
-2.2721615 -1.6390572 -0.34585592 0.15112473
-2.2017968 -1.641191 -0.34716904 0.15243785
-2.1186023 -1.6397785 -0.35050434 0.15577315
-2.0415397 -1.6403753 -0.35251656 0.054758817
-1.9575231 -1.6421156 -0.34954745 0.051789701
-1.8798019 -1.640547 -0.35121492 0.0036665797
-1.797148 -1.6377201 -0.34814563 0.00059729815
-1.7212613 -1.6363757 -0.34415331 0.003395021
-1.6402967 -1.6394408 -0.34740609 0.003673166
-1.5599704 -1.639106 -0.34721237 0.0038668811
-1.4771535 -1.6405361 -0.34863114 0.058421463
-1.3974143 -1.6371336 -0.3476662 0.059386402
-1.320701 -1.6405309 -0.35107926 0.055973351
-1.2392595 -1.6394935 -0.35217255 0.056784183
-1.1610409 -1.6410897 -0.35485244 0.054104298
-1.0790735 -1.637339 -0.35927171 0.0043023229
-1.0195774 -1.639535 -0.36380386 0.00022983551
-2.2624154 -1.5608373 -0.33833089 0.1435997
-2.2048135 -1.5568634 -0.34852058 0.15378939
-2.1291101 -1.5648457 -0.35594925 0.16121806
-2.0342708 -1.5571535 -0.34755352 0.049795777
-1.952523 -1.5593275 -0.3542904 0.056532651
-1.8791535 -1.5607723 -0.34727132 0.00027701259
-1.7961453 -1.5574994 -0.34754834 0
-1.7149155 -1.5568219 -0.3474392 0.0001091361
-1.6399864 -1.5610284 -0.35063109 0.00044816732
-1.5616571 -1.5590395 -0.34654248 0.0045367777
-1.4799194 -1.5584991 -0.34597605 0.061076552
-1.4014076 -1.5581447 -0.34602794 0.061024666
-1.3188667 -1.5614344 -0.34672609 0.060326517
-1.2380323 -1.5580163 -0.35166118 0.057295561
-1.1593198 -1.560181 -0.35524777 0.053708971
-1.0791473 -1.5599225 -0.35887161 0.004702419
-1.0184495 -1.5597469 -0.36074728 0.0028267503
-2.608151 -1.4435772 -0.32531279 0.36581618
-2.5465434 -1.5150265 -0.32114971 0.43971348
-2.3304076 -1.4536546 -0.32826635 0.32332963
-2.2583179 -1.4814513 -0.33782515 0.20602559
-2.2030342 -1.4795704 -0.34336174 0.21156217
-2.1188917 -1.4865078 -0.35264853 0.22084896
-2.0373704 -1.4843712 -0.35122323 0.072327793
-1.955704 -1.4757171 -0.35159126 0.072695822
-1.8800657 -1.4813633 -0.3488943 0.010542452
-1.8036354 -1.4808178 -0.34609792 0.0077460706
-1.7191374 -1.478196 -0.34832671 0.0099748671
-1.6411252 -1.4791961 -0.34719718 0.0021311343
-1.5608978 -1.4807622 -0.34581289 0.0035154223
-1.4790192 -1.4799289 -0.34621775 0.0305278
-1.3982888 -1.4799949 -0.3489185 0.027827054
-1.3204944 -1.4788936 -0.34838489 0.028360665
-1.2392454 -1.4792064 -0.35333717 0.058509648
-1.159341 -1.4794085 -0.3535215 0.05832532
-1.0799801 -1.4822863 -0.35843244 0.039218634
-1.0201427 -1.4799763 -0.36067349 0.036977589
-2.579484 -1.3880391 -0.3230575 0.36356089
-2.4807405 -1.4370214 -0.3215704 0.31663367
-2.4419096 -1.3887597 -0.32811826 0.32318154
-2.3617227 -1.3911774 -0.33389956 0.32896283
-2.2771866 -1.4113404 -0.33601063 0.20421107
-2.1958315 -1.4112179 -0.33416775 0.20236818
-2.1247127 -1.4037863 -0.33434647 0.20254691
-2.0375304 -1.4061676 -0.34339041 0.064494967
-1.9645745 -1.3976128 -0.35043687 0.071541429
-1.8810482 -1.4037868 -0.35367951 0.015327662
-1.7973706 -1.400007 -0.3463963 0.0080444515
-1.7197145 -1.4016165 -0.34797576 0.009623915
-1.6418036 -1.4005604 -0.34619203 0.0031362772
-1.5599158 -1.3987684 -0.34853381 0.00079450011
-1.4780287 -1.4027473 -0.35181102 0.02493453
-1.3982698 -1.3988371 -0.34966287 0.027082682
-1.3226484 -1.3991406 -0.35058641 0.026159137
-1.2395568 -1.4021398 -0.35025325 0.061593562
-1.1597501 -1.4008321 -0.35220423 0.059642583
-1.0808325 -1.4009875 -0.35706416 0.040586919
-1.0201601 -1.4026346 -0.35812223 0.039528847
-2.6121931 -1.3148066 -0.337367 0.37787038
-2.3457215 -1.3337315 -0.33234805 0.32741132
-2.2966831 -1.328707 -0.32598376 0.1941842
-2.1983774 -1.3319275 -0.32803163 0.19623207
-2.1161094 -1.3205925 -0.32987398 0.19807442
-2.0447307 -1.3189006 -0.33844697 0.059551537
-1.9509686 -1.3270582 -0.35239869 0.073503256
-1.8743039 -1.3189318 -0.35179704 0.013445199
-1.7962925 -1.3216083 -0.34817064 0.0098187923
-1.7209445 -1.320169 -0.34932831 0.010976464
-1.6390047 -1.3181078 -0.3439059 0.0054224133
-1.5621349 -1.3177733 -0.34838367 0.00094464421
-1.4810646 -1.3209463 -0.35453001 0.022215545
-1.3997625 -1.3219081 -0.34886318 0.027882367
-1.3239733 -1.3218867 -0.34912077 0.027624786
-1.2342756 -1.3247917 -0.36042419 0.051422626
-1.162065 -1.3292723 -0.35553691 0.056309909
-1.0770833 -1.3249139 -0.35923254 0.038418531
-1.0206177 -1.3263044 -0.36270279 0.034948289
-2.5990994 -1.2538067 -0.34188572 0.38646579
-2.3362482 -1.2175024 -0.32928491 0.32434818
-2.2890635 -1.2464379 -0.32280314 0.1838287
-2.1788523 -1.2463032 -0.32728386 0.18830942
-2.1136794 -1.2412924 -0.33456504 0.1955906
-2.0409729 -1.2390119 -0.33332542 0.10311186
-1.9584702 -1.2422782 -0.33903196 0.10881841
-1.8714538 -1.2433771 -0.34490573 0.050499171
-1.8032218 -1.2394152 -0.35156479 0.057158232
-1.7195646 -1.2432444 -0.3441585 0.049751937
-1.6397192 -1.2395992 -0.34730899 0
-1.5606935 -1.2413127 -0.34931245 0.0020034611
-1.4821124 -1.2402067 -0.35031408 0.015690684
-1.4005127 -1.2427547 -0.35187426 0.014130503
-1.3277277 -1.2450283 -0.36193073 0.0040740371
-1.2456459 -1.2414201 -0.36935365 0.041673452
-1.1661049 -1.2407125 -0.37674555 0.034281552
-1.0741736 -1.2514418 -0.37687489 0.031396568
-1.0185781 -1.2478808 -0.37215281 0.036118656
-2.6056473 -1.1587481 -0.33693093 0.38151103
-2.5540123 -1.1434133 -0.33201176 0.37659186
-2.4414532 -1.1530509 -0.32258329 0.31764656
-2.3216763 -1.1982503 -0.32299209 0.31805536
-2.3089764 -1.1700743 -0.3264986 0.32156187
-2.1861091 -1.164266 -0.32693014 0.18795569
-2.1073215 -1.1596357 -0.33793125 0.1989568
-2.0410676 -1.1549101 -0.34523681 0.11502326
-1.9543798 -1.1591772 -0.33652034 0.10630679
-1.8748287 -1.1665957 -0.33606848 0.041661918
-1.8005543 -1.1577286 -0.33835185 0.043945283
-1.7197691 -1.1608368 -0.3455998 0.051193237
-1.638839 -1.1595061 -0.35160485 0.0042958558
-1.5600947 -1.1619244 -0.35303113 0.0057221353
-1.4824594 -1.1625241 -0.35338739 0.012617379
-1.4042654 -1.160638 -0.35963383 0.0063709319
-1.3243766 -1.1651629 -0.37184983 0.0058450699
-1.2361699 -1.1623533 -0.37350762 0.037519485
-1.1578974 -1.156707 -0.38279811 0.028228998
-1.0819297 -1.1577003 -0.38641161 0.021859854
-1.0190626 -1.1560793 -0.38419741 0.024074048
-2.5841184 -1.0830444 -0.33814254 0.37451747
-2.5197096 -1.08167 -0.3376531 0.37402803
-2.4520526 -1.0639079 -0.34001303 0.31178051
-2.3937917 -1.0688417 -0.32854146 0.30030894
-2.2658815 -1.0898391 -0.32627511 0.12866968
-2.196949 -1.0794935 -0.32990831 0.13230288
-2.0959616 -1.0809127 -0.33794817 0.11114672
-2.0400443 -1.0815693 -0.35042912 0.12362766
-1.9624296 -1.0781394 -0.33973467 0.11293322
-1.8769622 -1.0785537 -0.34460202 0.058326125
-1.7946094 -1.0847743 -0.34340352 0.057127625
-1.7177783 -1.0847175 -0.34697214 0.060696244
-1.638968 -1.0839605 -0.35749635 0.012590617
-1.5593899 -1.0837967 -0.35667551 0.011769772
-1.4820181 -1.0857946 -0.35906827 0.0064508617
-1.3998668 -1.0824716 -0.35418054 0.011338592
-1.3237851 -1.0779039 -0.36600477 0.00048562884
-1.2404656 -1.0778916 -0.37449777 0.034359872
-1.1554048 -1.073011 -0.38293871 0.025918931
-1.0792935 -1.0812314 -0.38454849 0.024573654
-1.021879 -1.0657154 -0.38056457 0.028557569
-2.5907049 -1.0191993 -0.32244158 0.3588165
-2.5307207 -1.0238006 -0.32961538 0.36599031
-2.4436889 -1.013634 -0.33407038 0.30583787
-2.363168 -1.012817 -0.32983512 0.3016026
-2.2622523 -1.0232781 -0.32684931 0.12924388
-2.2009993 -1.0214581 -0.33959031 0.14198488
-2.1168914 -1.0192543 -0.35694867 0.15934324
-2.0389044 -1.0210314 -0.34033155 0.1135301
-1.9581796 -1.0192577 -0.35283732 0.12603587
-1.8809122 -1.0187984 -0.34985343 0.063577533
-1.8015671 -1.0175109 -0.34118965 0.054913759
-1.7165402 -1.0244097 -0.34915444 0.062878549
-1.6391683 -1.0209942 -0.35234326 0.0074375272
-1.5581899 -1.0224533 -0.35563523 0.010729492
-1.4814483 -1.0220034 -0.3576051 0.0079140365
-1.3969811 -1.0185161 -0.35897258 0.0065465569
-1.3164215 -1.0201851 -0.35690135 0.0086177886
-1.2461724 -1.0147057 -0.36095753 0.04790011
-1.1541114 -1.0183253 -0.37536302 0.033494622
-1.08577 -1.0200092 -0.37751397 0.031608164
-1.0213832 -1.0189728 -0.38842213 0.020700008
-2.5880466 -2.9838436 -0.27416536 0.39466995
-2.5142624 -2.9796634 -0.27619058 0.39669517
-2.4507859 -2.9740088 -0.29654264 0.26686439
-2.3487234 -2.9825203 -0.28945887 0.25978062
-2.279254 -2.9821928 -0.28632769 0.05379051
-2.2073295 -2.9778304 -0.300428 0.067890823
-2.1103256 -2.9872282 -0.30108288 0.068545699
-2.0427556 -2.9747865 -0.30762884 0.028164476
-1.9516053 -2.9822378 -0.31912252 0.016670793
-1.9139299 -2.9703424 -0.3135345 0.022258818
-1.8266062 -2.987643 -0.31933779 0.027836382
-1.2049271 -2.9837253 -0.28619835 0.24093702
-1.1888798 -2.9784782 -0.27779451 0.23253319
-2.6405168 -2.9550736 -0.26398212 0.38448671
-2.6137109 -2.9242647 -0.26507264 0.38557723
-2.4923694 -2.9332414 -0.27559364 0.24591538
-2.4603219 -2.9121122 -0.27996796 0.25028971
-2.3451521 -2.9177217 -0.29427424 0.26459599
-2.2802095 -2.9189694 -0.29060423 0.058067054
-2.2069542 -2.9290252 -0.29471022 0.062173039
-2.0990865 -2.9274199 -0.30040145 0.035391867
-2.0359254 -2.9251058 -0.30245572 0.033337593
-1.9738058 -2.9225595 -0.31058156 0.025211751
-1.9032354 -2.9508293 -0.31603143 0.01976189
-1.7615603 -2.9426751 -0.31925905 0.02791512
-1.2077744 -2.956377 -0.26197401 0.21671268
-1.178519 -2.9187629 -0.28100717 0.23574585
-2.5994754 -2.8307905 -0.26321051 0.38309205
-2.5119269 -2.8278604 -0.27572089 0.39560243
-2.44642 -2.8449707 -0.28295118 0.23993526
-2.3661869 -2.8338914 -0.28250343 0.23948751
-2.2717869 -2.8435287 -0.29519916 0.016709119
-2.2062154 -2.8397577 -0.29134166 0.012851626
-2.1020157 -2.8106923 -0.30786136 0.029371321
-2.0368485 -2.8391654 -0.30132118 0.02788499
-1.9694554 -2.8275871 -0.31096423 0.018241942
-1.1605742 -2.8392043 -0.27902681 0.16480283
-1.1188239 -2.815496 -0.25322792 0.13900395
-2.6417818 -2.7728553 -0.25135273 0.37123427
-2.5909848 -2.759526 -0.27230516 0.3921867
-2.5216682 -2.7581308 -0.28395018 0.40383172
-2.4447727 -2.7609367 -0.28236297 0.23934706
-2.3613613 -2.7587152 -0.28272861 0.2397127
-2.287884 -2.7588654 -0.2880125 0.0095224679
-2.2019439 -2.7579505 -0.29366821 0.015178174
-2.1260431 -2.7526741 -0.27829576 0.00019428134
-2.030206 -2.76389 -0.29884079 0.030365378
-1.9778442 -2.746644 -0.297793 0.031413168
-1.8065941 -2.7517867 -0.30558279 0.036574721
-1.1408976 -2.7627625 -0.2766135 0.16238953
-1.1174144 -2.7565353 -0.27398047 0.1597565
-2.5837121 -2.6821728 -0.2698867 0.39748698
-2.5257111 -2.684521 -0.28714859 0.41474888
-2.4431233 -2.6950905 -0.28381678 0.23592715
-2.3609905 -2.6891515 -0.27849004 0.2306004
-2.2782204 -2.6825743 -0.27755103 0.060467154
-2.2059836 -2.6917999 -0.26294032 0.045856446
-2.1174362 -2.6898265 -0.28212488 0.065041006
-2.0460408 -2.6738117 -0.28219342 0.016647369
-1.9614975 -2.6816149 -0.30496144 0.006120652
-1.8520797 -2.6557207 -0.28842172 0.039074302
-1.787071 -2.6720438 -0.29774684 0.029749185
-1.7129976 -2.6551144 -0.30363828 0.023857743
-1.6346422 -2.6646533 -0.30746648 0.022312969
-1.1290118 -2.6881254 -0.27751067 0.080618247
-1.1141603 -2.6675143 -0.27392647 0.077034041
-2.5827749 -2.6053739 -0.26429194 0.39189222
-2.5361273 -2.6151717 -0.27278841 0.40038869
-2.2808089 -2.6306839 -0.31619412 0.099110246
-2.2193084 -2.5771661 -0.28430608 0.067222208
-2.1044822 -2.5977445 -0.25957558 0.042491704
-2.0379789 -2.6012065 -0.26908118 0.029759616
-1.9562635 -2.5941007 -0.29670715 0.0021336377
-1.8798426 -2.5988572 -0.29116419 0.036331832
-1.8052659 -2.5971665 -0.28907168 0.038424343
-1.7202703 -2.5988555 -0.29335335 0.034142673
-1.6451842 -2.5922995 -0.29581755 0.033961892
-1.5761719 -2.5882921 -0.30767316 0.02210629
-1.1243995 -2.6102033 -0.29183647 0.094944045
-1.1059682 -2.6000638 -0.27763695 0.08074452
-2.5761385 -2.5292203 -0.25521365 0.38281393
-2.5570908 -2.5153911 -0.25257245 0.38017273
-2.2122023 -2.5310829 -0.2807121 0.063628227
-2.0423567 -2.5103538 -0.28021505 0.018625736
-1.9474221 -2.5286779 -0.28825 0.010590792
-1.8739485 -2.5148337 -0.28384745 0.043648571
-1.7959596 -2.5133276 -0.28731987 0.040176153
-1.7232734 -2.5199327 -0.29215103 0.035344988
-1.6437274 -2.518723 -0.29612345 0.033656001
-1.5686646 -2.5188763 -0.29706922 0.032710224
-1.4838399 -2.5131865 -0.30531338 0.025515139
-1.3663048 -2.4811854 -0.31934932 0.020083308
-1.0899758 -2.51878 -0.28062481 0.31997189
-2.5773392 -2.4532773 -0.24750464 0.44792497
-2.2451241 -2.4365489 -0.24431272 0.054183722
-2.207695 -2.4193797 -0.25221947 0.062090471
-2.1008162 -2.4330716 -0.29819232 0.10806333
-2.0420532 -2.4405205 -0.28690255 0.0021691322
-1.9400749 -2.4499161 -0.29119664 0.0021249652
-1.8797332 -2.4391448 -0.28397512 0.04325223
-1.7981544 -2.4371812 -0.2871587 0.040068656
-1.7224592 -2.4360325 -0.29087162 0.036355734
-1.6419871 -2.4421039 -0.29400572 0.036822796
-1.5589612 -2.4372716 -0.29737613 0.033452392
-1.4852581 -2.4403903 -0.30116087 0.038271755
-1.4040511 -2.43258 -0.30661842 0.032814205
-1.328594 -2.4317727 -0.31317541 0.026257217
-1.2722328 -2.4128664 -0.31787342 0.039076746
-1.0694988 -2.4400065 -0.27819189 0.23738566
-1.0397476 -2.428489 -0.30404887 0.26324263
-2.5913367 -2.3586144 -0.2466027 0.44702303
-2.2429931 -2.3962779 -0.24790557 0.05777657
-2.2070298 -2.3938036 -0.24858186 0.05845286
-2.0477061 -2.3529172 -0.30154377 0.012472093
-1.9537761 -2.363472 -0.3044934 0.015421718
-1.8756514 -2.3622873 -0.28314105 0.044086307
-1.7988806 -2.3592637 -0.2843861 0.042841256
-1.719685 -2.3606794 -0.2884796 0.038747758
-1.640272 -2.3584135 -0.29418099 0.036647528
-1.5582654 -2.3574452 -0.29769811 0.033130407
-1.4806252 -2.3563468 -0.30161163 0.037820995
-1.4068439 -2.357348 -0.30334225 0.036090374
-1.3224769 -2.3564305 -0.30768865 0.031743973
-1.0517963 -2.3718386 -0.28030813 0.23950189
-1.0286245 -2.3485553 -0.27790847 0.23710224
-2.5934293 -2.2918882 -0.25494042 0.45476681
-2.1943493 -2.2977176 -0.24968095 0.089198798
-2.0368378 -2.2890432 -0.2827585 0.0048969388
-1.9698335 -2.2776582 -0.31006268 0.022407234
-1.8683101 -2.2900043 -0.2841033 0.043787569
-1.8016038 -2.2758999 -0.28401095 0.043879926
-1.7212301 -2.276608 -0.28666347 0.0412274
-1.6390772 -2.2799137 -0.2938152 0.042487234
-1.560997 -2.2811055 -0.29524791 0.041054517
-1.4805226 -2.2839384 -0.29927909 0.050305426
-1.40345 -2.2794988 -0.30166405 0.047920465
-1.325745 -2.2731633 -0.30402789 0.045556635
-1.2704331 -2.318768 -0.31642804 0.037631363
-1.0461261 -2.3008952 -0.28637469 0.24556845
-1.0162007 -2.2862694 -0.27933672 0.15619859
-2.595649 -2.183902 -0.26123926 0.46106565
-2.5594146 -2.1612434 -0.25755057 0.45737696
-2.2872686 -2.2111263 -0.25597325 0.095491096
-2.0888882 -2.2162061 -0.31132481 0.023669362
-2.0463836 -2.2123616 -0.27341428 0.014241159
-1.9800794 -2.2185888 -0.29693216 0.0092767179
-1.8648291 -2.197942 -0.26447117 0.0634197
-1.7975374 -2.1992009 -0.28469697 0.043193907
-1.7175397 -2.197156 -0.28765544 0.04023543
-1.6424309 -2.2031615 -0.28866741 0.047635019
-1.5580431 -2.2007647 -0.29369205 0.042610377
-1.4813828 -2.200459 -0.29836962 0.051214904
-1.3967839 -2.1988022 -0.30080801 0.048776507
-1.3389279 -2.2142322 -0.30567601 0.043908507
-1.0064029 -2.2207794 -0.28046241 0.15732428
-2.585954 -2.1329215 -0.26226366 0.46209002
-2.5549741 -2.1260753 -0.27308172 0.47290808
-2.2629001 -2.1390622 -0.25567159 0.095189437
-2.2110846 -2.1412091 -0.24547592 0.084993765
-2.1370244 -2.1287374 -0.2458438 0.085361645
-2.0612512 -2.1499374 -0.24717771 0.040477738
-1.8657711 -2.129601 -0.26522699 0.062663883
-1.8002641 -2.1274884 -0.29102308 0.036867797
-1.7220985 -2.1188698 -0.28667054 0.041220337
-1.6397876 -2.120333 -0.292133 0.044169426
-1.5602348 -2.121861 -0.29330412 0.042998314
-1.479736 -2.1202292 -0.297959 0.05162552
-1.4111736 -2.1285775 -0.30347309 0.046111435
-1.3235222 -2.137922 -0.31914189 0.030442625
-2.5925133 -2.0319045 -0.26798019 0.39201039
-2.5277307 -2.0353601 -0.27940619 0.40343639
-2.474875 -2.0160556 -0.27102178 0.23075384
-1.9580282 -2.0233698 -0.2459522 0.056371227
-1.8409534 -2.0762553 -0.31834 0.019839466
-1.7976289 -2.036227 -0.30284262 0.035336852
-1.7183888 -2.0379286 -0.29264277 0.045536697
-1.6420257 -2.0373728 -0.29330388 0.0545941
-1.557898 -2.0354912 -0.28980857 0.058089405
-1.4886618 -2.0431693 -0.30090007 0.056826204
-1.4191732 -2.054642 -0.30781943 0.04990685
-2.6451249 -1.9475424 -0.26944304 0.39347324
-2.5997894 -1.9563113 -0.27671126 0.40074146
-2.5332549 -1.9708126 -0.28360111 0.40763131
-2.4701486 -1.9892979 -0.28686565 0.24659771
-2.165204 -1.935214 -0.2826381 0.093234628
-2.1269507 -1.932731 -0.2849912 0.09558773
-2.0086429 -1.9394761 -0.2585384 0.043785036
-1.9668962 -1.9556472 -0.27213401 0.030189425
-1.8646353 -1.9468157 -0.29121959 0.046959877
-1.8050816 -1.9630499 -0.30380797 0.034371495
-1.719087 -1.9662777 -0.30088952 0.037289947
-1.6383933 -1.9628649 -0.30402595 0.043872029
-1.560407 -1.9705803 -0.30505228 0.042845696
-1.4864807 -1.977856 -0.30814272 0.049583554
-1.4182805 -1.924666 -0.31581652 0.041909754
-2.6488094 -1.8703818 -0.26789707 0.38856122
-2.611763 -1.8839355 -0.27599064 0.39665478
-2.5403593 -1.8866901 -0.28562903 0.40629318
-2.378077 -1.8525585 -0.30456042 0.25959399
-2.2663455 -1.8668703 -0.28697586 0.076729089
-2.1845145 -1.8677694 -0.27659011 0.066343337
-2.1239033 -1.8830773 -0.29352549 0.083278716
-2.0561144 -1.8656561 -0.28931934 0.018915653
-1.9722561 -1.8907875 -0.24687433 0.061360657
-1.8735616 -1.8860143 -0.29491258 0.052017778
-1.8100082 -1.8826177 -0.30936176 0.037568599
-1.7242445 -1.8797756 -0.31134078 0.035589576
-1.6418862 -1.8853844 -0.31280261 0.038276643
-1.5647882 -1.8815017 -0.31309745 0.037981808
-1.4872259 -1.8871021 -0.31532696 0.085729212
-1.4267963 -1.8859334 -0.31725049 0.08380568
-2.6473005 -1.8067175 -0.26068807 0.38135222
-2.6086967 -1.8033028 -0.27593905 0.3966032
-2.5532048 -1.8186016 -0.30129886 0.42196301
-2.4386945 -1.8014292 -0.31904885 0.27408242
-2.3691723 -1.830659 -0.31258079 0.26761436
-2.2574668 -1.8183972 -0.29802072 0.087773949
-2.1953526 -1.807179 -0.28472322 0.074476451
-2.116662 -1.8011258 -0.29775774 0.087510973
-2.0371146 -1.8002179 -0.29259002 0.015644968
-1.9624991 -1.7823418 -0.28639469 0.021840304
-1.8878053 -1.796013 -0.3047362 0.042194158
-1.7973428 -1.7922385 -0.30611482 0.040815532
-1.7202417 -1.7973899 -0.30920005 0.037730306
-1.6428925 -1.7998989 -0.31137517 0.039704084
-1.5567503 -1.7929698 -0.31480661 0.036272645
-1.4990859 -1.7879485 -0.31569952 0.085356653
-1.4130979 -1.7826762 -0.31642297 0.084633201
-2.6440966 -1.7204647 -0.26601276 0.38667691
-2.6052833 -1.7172972 -0.26619685 0.386861
-2.5524981 -1.7208294 -0.26379985 0.384464
-2.1878119 -1.7239145 -0.29747868 0.087231904
-2.1243403 -1.7210442 -0.30232343 0.092076659
-2.0367513 -1.7208939 -0.29639775 0.011837244
-1.9593208 -1.7229544 -0.29833204 0.0099029541
-1.8815694 -1.7220995 -0.30265731 0.044273049
-1.7971936 -1.7157743 -0.3068684 0.040061951
-1.7262868 -1.7187369 -0.30830133 0.038629025
-1.6405199 -1.7227901 -0.31249887 0.038580388
-1.5642761 -1.7197853 -0.31317398 0.037905276
-1.4875289 -1.7154442 -0.31689289 0.084163278
-1.4149162 -1.7018354 -0.31693125 0.084124923
-1.3573194 -1.7206366 -0.31920156 0.081854612
-2.6458061 -1.6415977 -0.26274383 0.3813076
-2.6020513 -1.6392992 -0.27024788 0.38881165
-2.5411177 -1.6253154 -0.26829779 0.38686156
-2.4198735 -1.6129856 -0.30329436 0.26580882
-2.3407562 -1.6303614 -0.30043638 0.26295084
-2.2794209 -1.6229767 -0.30013025 0.10539906
-2.1795218 -1.6422807 -0.29440451 0.099673316
-2.1252224 -1.6405001 -0.29696301 0.10223182
-2.0332332 -1.6457932 -0.29980019 0.0020424426
-1.9586878 -1.6383591 -0.29832849 0.00057074428
-1.8824655 -1.6408614 -0.30054095 0.047007382
-1.802689 -1.6348042 -0.30418089 0.043367445
-1.7271062 -1.641082 -0.30900636 0.038541973
-1.642723 -1.6379844 -0.3110936 0.039985657
-1.5648031 -1.6420161 -0.3125962 0.038483053
-1.4808346 -1.6450865 -0.31497157 0.09208104
-1.4175576 -1.6218739 -0.31614783 0.090904772
-1.2817265 -1.6281273 -0.31916288 0.089793861
-2.5969234 -1.5582179 -0.26786357 0.38642734
-2.527029 -1.5607187 -0.27611002 0.39467379
-2.4550796 -1.5429523 -0.27176934 0.23428379
-2.3269715 -1.5667062 -0.28083587 0.24335031
-2.2699049 -1.5535523 -0.2817027 0.086971506
-2.2124894 -1.5478743 -0.27706805 0.082336858
-2.1231081 -1.5633506 -0.30278406 0.10805286
-2.0426872 -1.5588237 -0.30061486 0.0028571188
-1.9592077 -1.5638342 -0.29567623 0.0020815134
-1.8821478 -1.558189 -0.30475876 0.042789578
-1.8028395 -1.5621982 -0.30365425 0.043894082
-1.7194628 -1.5608916 -0.30823499 0.039313346
-1.6386551 -1.5542284 -0.31162989 0.039449364
-1.5556643 -1.5530311 -0.31416425 0.036915004
-1.4840195 -1.5591042 -0.31438723 0.092665374
-1.4066982 -1.5480405 -0.3169792 0.090073407
-1.3515015 -1.5587902 -0.31886923 0.088183373
-2.6412556 -1.4728701 -0.27398565 0.31448904
-2.6022301 -1.4741787 -0.27104998 0.31155336
-2.5155056 -1.4829414 -0.27117163 0.31167501
-2.4425449 -1.4747025 -0.27090818 0.26597145
-2.3492913 -1.4715059 -0.27334821 0.26841149
-2.2830164 -1.4801248 -0.2737523 0.14195274
-2.2081568 -1.483885 -0.27604356 0.144244
-2.1204834 -1.4741098 -0.28951633 0.15771677
-2.0329695 -1.4750438 -0.29697171 0.018076271
-1.9635262 -1.4744916 -0.29318917 0.01429373
-1.8868159 -1.478894 -0.2988517 0.039500147
-1.8008591 -1.4795258 -0.2999346 0.03841725
-1.7205788 -1.4772062 -0.30836609 0.029985756
-1.6421256 -1.4795558 -0.31006491 0.039263397
-1.5618628 -1.4811237 -0.31249306 0.036835253
-1.4847162 -1.4814383 -0.31410918 0.062636375
-1.4112339 -1.4773728 -0.31619811 0.060547441
-1.3237756 -1.4428697 -0.31971169 0.057033867
-1.156696 -1.4406897 -0.31921831 0.092628509
-2.6416736 -1.3710884 -0.26480162 0.305305
-2.6031847 -1.3951637 -0.27019539 0.31069878
-2.5175157 -1.4123665 -0.2705254 0.31102878
-2.4368491 -1.4047649 -0.27550116 0.27056444
-2.3595216 -1.4001877 -0.27367479 0.26873806
-2.284642 -1.4074665 -0.27509162 0.14329205
-2.1952517 -1.4043337 -0.27916023 0.14736067
-2.1262443 -1.3972832 -0.28394055 0.15214099
-2.0376973 -1.3987858 -0.28578541 0.0068899691
-1.9559468 -1.4013983 -0.28153348 0.002638042
-1.8840945 -1.3972845 -0.29039821 0.047953635
-1.7906528 -1.3989403 -0.29106015 0.047291696
-1.7225871 -1.3975985 -0.30475977 0.033592075
-1.6401323 -1.399497 -0.3100107 0.039317608
-1.5631384 -1.3951907 -0.31133705 0.037991256
-1.4813938 -1.4007776 -0.31466606 0.062079489
-1.4070686 -1.3987677 -0.31478325 0.061962306
-1.3232588 -1.4015038 -0.31698716 0.059758395
-1.2354543 -1.4125638 -0.31724954 0.09459728
-2.6454055 -1.3169687 -0.27683911 0.31734249
-2.6064649 -1.3213036 -0.27213576 0.31263915
-2.5431144 -1.3078438 -0.27070209 0.31120548
-2.423753 -1.3325621 -0.28710932 0.28217259
-2.3598061 -1.3194325 -0.27759784 0.27266112
-2.2840133 -1.3163493 -0.27685341 0.14505385
-2.1997669 -1.3237547 -0.27889544 0.14709587
-2.122611 -1.3207319 -0.28038958 0.14859001
-2.0421517 -1.315595 -0.28359604 0.0047006011
-1.9551799 -1.3231858 -0.28578031 0.0068848729
-1.8771431 -1.3179424 -0.28375655 0.054595292
-1.7997581 -1.317394 -0.28535184 0.053000003
-1.7235155 -1.3151788 -0.29957885 0.038773
-1.6435366 -1.321219 -0.30783376 0.041494548
-1.5629882 -1.3144671 -0.30994946 0.039378852
-1.4826552 -1.3183267 -0.31290776 0.063837796
-1.4064243 -1.3193859 -0.31517121 0.06157434
-1.3399135 -1.3253311 -0.31732079 0.059424758
-2.6445742 -1.2304554 -0.27214801 0.31672812
-2.6006665 -1.2378526 -0.27073115 0.31531125
-2.520319 -1.2369105 -0.26732072 0.31190079
-2.4477596 -1.2250054 -0.27115846 0.26622173
-2.352354 -1.2454723 -0.28017384 0.27523711
-2.2803893 -1.2399555 -0.27597103 0.13699658
-2.204797 -1.236648 -0.27481675 0.13584231
-2.1185727 -1.2431438 -0.28203055 0.14305611
-2.0430856 -1.2374332 -0.28292224 0.052708685
-1.9585209 -1.2394661 -0.28979969 0.059586138
-1.8765388 -1.2385018 -0.28731206 0.0070945024
-1.7980183 -1.2426242 -0.28745991 0.0069466531
-1.7263162 -1.2329572 -0.29440656 0
-1.6399926 -1.2380038 -0.30703071 0.040278286
-1.5633316 -1.2394649 -0.30927223 0.038036764
-1.48444 -1.25052 -0.31186521 0.054139555
-1.4082186 -1.2491325 -0.31415081 0.051853955
-1.3515365 -1.2517049 -0.31488946 0.051115304
-2.6446559 -1.1681436 -0.26849625 0.31307632
-2.6009352 -1.1589469 -0.27274358 0.31732368
-2.5230439 -1.159561 -0.26889962 0.31347972
-2.441777 -1.1574545 -0.27250949 0.26757276
-2.3668115 -1.1567819 -0.27402887 0.26909214
-2.2748618 -1.1643929 -0.28347257 0.14449812
-2.202179 -1.1592473 -0.27991119 0.14093675
-2.1237142 -1.1580759 -0.27777517 0.13880073
-2.0405548 -1.1551473 -0.28159678 0.051383227
-1.9618338 -1.1547832 -0.28622505 0.056011498
-1.8774077 -1.1607673 -0.28304061 0.01136595
-1.8002862 -1.1578037 -0.29169053 0.0027160347
-1.7260901 -1.1620711 -0.29586679 0.0014602244
-1.6401619 -1.1628482 -0.30419135 0.043117642
-1.559383 -1.1577348 -0.30913141 0.03817758
-1.4839005 -1.1560826 -0.31112465 0.054880112
-1.4064388 -1.1284877 -0.31379318 0.052211583
-2.6448722 -1.0575516 -0.27465656 0.31103149
-2.5979235 -1.0836484 -0.27732947 0.3137044
-2.5178893 -1.083979 -0.2745029 0.31087783
-2.4396029 -1.0840828 -0.27757937 0.24934685
-2.3617795 -1.078389 -0.27448922 0.24625671
-2.2827682 -1.0787195 -0.27776682 0.080161393
-2.196743 -1.0842634 -0.28145289 0.083847463
-2.1206517 -1.0768718 -0.27701318 0.079407752
-2.0370417 -1.0798965 -0.28561342 0.058811963
-1.9607623 -1.082872 -0.28748962 0.060688168
-1.8811693 -1.077425 -0.28289732 0.0033785701
-1.7981336 -1.0836622 -0.28479576 0.0014801323
-1.7216628 -1.0808576 -0.28952411 0.0032482147
-1.6473581 -1.0761902 -0.29954049 0.045365244
-1.561887 -1.0819012 -0.30675128 0.038154453
-1.4789829 -1.068845 -0.30551276 0.06000638
-1.4001625 -1.0689082 -0.3114967 0.054022431
-1.3498576 -1.0708869 -0.31925106 0.046268076
-2.6497915 -1.0347928 -0.24798423 0.28435916
-2.5955679 -1.0177748 -0.27391621 0.31029114
-2.5249195 -1.0210186 -0.2803351 0.31671003
-2.4483931 -1.0225897 -0.28260806 0.25437555
-2.356004 -1.0196426 -0.27847144 0.25023893
-2.2864077 -1.0199221 -0.27396092 0.076355487
-2.1957788 -1.0201931 -0.27815181 0.080546379
-2.1192694 -1.020595 -0.2766833 0.07907787
-2.040729 -1.0195808 -0.28213677 0.055335313
-1.9622689 -1.0218027 -0.28424552 0.057444066
-1.8777944 -1.0180113 -0.28061408 0.0056618154
-1.803066 -1.0199414 -0.28435248 0.0019234121
-1.7204509 -1.0177345 -0.28412458 0.0021513104
-1.6505866 -1.0161016 -0.29742378 0.047481954
-1.5682296 -1.0210723 -0.30345753 0.041448206
-1.4790441 -1.0211704 -0.30627653 0.059242606
-1.4142991 -1.0158412 -0.3070356 0.058483541
-1.3456259 -1.022035 -0.31389895 0.051620185
-2.6428556 -2.981411 -0.17778496 0.29828954
-2.5942109 -2.9819541 -0.19687787 0.31738245
-2.5217922 -2.9787321 -0.20870446 0.32920903
-2.4525108 -2.9799814 -0.22751243 0.19783418
-2.3407872 -2.9947386 -0.22795968 0.19828142
-2.3002822 -2.9763076 -0.22002195 0.19034369
-1.201991 -2.9960091 -0.17412503 0.12886369
-1.1850911 -2.9755814 -0.20206547 0.15680414
-2.6433015 -2.9089861 -0.18802539 0.30852997
-2.6030743 -2.9239671 -0.19192421 0.3124288
-2.5066121 -2.9295766 -0.19408296 0.31458753
-2.4643078 -2.9094534 -0.2042958 0.17461754
-2.3939879 -2.8813162 -0.22630002 0.1832841
-2.2880273 -2.920104 -0.22414704 0.0083901435
-1.1771678 -2.9190683 -0.20038997 0.15512863
-2.6464815 -2.8360336 -0.17574698 0.29562852
-2.5986192 -2.8384659 -0.19378747 0.313669
-2.5196145 -2.8432221 -0.19849126 0.31837279
-2.4427199 -2.8508205 -0.21708387 0.17406796
-2.3829136 -2.811686 -0.23253718 0.18952127
-2.2944558 -2.8795004 -0.22110532 0.057384714
-2.1756024 -2.8177638 -0.20344988 0.075040162
-2.1565564 -2.83289 -0.18608457 0.092405468
-1.161893 -2.8411169 -0.2014101 0.087186128
-2.6408336 -2.7448945 -0.19223323 0.31211478
-2.5958893 -2.761183 -0.19611165 0.31599319
-2.5279369 -2.7507117 -0.22323309 0.34311461
-2.4415116 -2.7679932 -0.23263688 0.18962097
-2.36274 -2.742444 -0.23326559 0.19024968
-2.243664 -2.733674 -0.18324335 0.095246688
-2.2089477 -2.7597265 -0.18046932 0.098020718
-2.1239734 -2.7583375 -0.22939678 0.049093261
-2.0589993 -2.7292101 -0.22880653 0.10039964
-1.1418434 -2.7587664 -0.20019273 0.085968763
-2.6467974 -2.6781349 -0.1723391 0.29993939
-2.5958698 -2.6791506 -0.19668683 0.32428712
-2.5409625 -2.6817143 -0.20953459 0.33713487
-2.4412265 -2.6968746 -0.23334301 0.18545337
-2.3461673 -2.6834228 -0.21327525 0.16538562
-2.2796364 -2.6804988 -0.20193787 0.015146002
-2.2018192 -2.6781662 -0.19830665 0.018777221
-2.1328177 -2.6756158 -0.19801898 0.019064888
-2.051008 -2.6859493 -0.22239797 0.076442823
-1.1282114 -2.6834283 -0.20267327 0.0057808459
-1.1118789 -2.6711013 -0.20287678 0.005984351
-2.6432791 -2.6352282 -0.18986112 0.3174614
-2.5977991 -2.6027129 -0.19457111 0.32217139
-2.5512738 -2.6094551 -0.19817609 0.32577637
-2.358274 -2.6170571 -0.16748559 0.11959596
-2.2551367 -2.5991881 -0.18148401 0.035599858
-2.2065864 -2.6020911 -0.18996838 0.027115494
-2.1015995 -2.5854514 -0.21660471 0.00047916174
-2.0448611 -2.5956938 -0.20519514 0.093645647
-1.126711 -2.6336331 -0.22314177 0.026249349
-1.1024109 -2.5981708 -0.19689243 0
-2.5936301 -2.5211725 -0.19554482 0.32314509
-2.5503924 -2.5346935 -0.19612399 0.32372427
-2.3539381 -2.5271003 -0.16790998 0.12002034
-2.2501428 -2.5139723 -0.18708551 0.029998362
-2.2031748 -2.5294192 -0.19891088 0.018172994
-2.1261957 -2.5420732 -0.20309602 0.013987854
-2.0416889 -2.5150535 -0.19801232 0.10082847
-1.0871156 -2.5224717 -0.20354301 0.2428901
-2.5952682 -2.4406023 -0.1907524 0.39117277
-2.5481544 -2.444176 -0.17838851 0.37880886
-2.3493378 -2.4105411 -0.16048215 0.12405916
-2.2658539 -2.4361861 -0.19397599 0.0038469881
-2.2078819 -2.4299304 -0.19885339 0.0087243915
-2.1331317 -2.4200852 -0.18407457 0.0060544312
-2.0348649 -2.4586229 -0.20477575 0.084295928
-1.065859 -2.4364476 -0.19898748 0.15818125
-1.0370539 -2.4071839 -0.21233992 0.17153369
-2.5989964 -2.3597872 -0.19166295 0.39208329
-2.5506468 -2.3547804 -0.17780431 0.37822467
-2.3596532 -2.3824291 -0.1701984 0.1337754
-2.2594059 -2.3587635 -0.17864443 0.011484563
-2.2023792 -2.3629487 -0.190129 0
-2.1355088 -2.3790357 -0.1935233 0.0033943057
-2.0534151 -2.3261189 -0.23719512 0.05187656
-1.0493835 -2.3763607 -0.20183371 0.16102748
-1.0254378 -2.3517108 -0.19993688 0.15913065
-2.597214 -2.2790451 -0.19410104 0.3939274
-2.5453103 -2.277349 -0.17092611 0.37075248
-2.3480349 -2.2524726 -0.20121682 0.17311309
-2.2746027 -2.2869093 -0.18385306 0.023370907
-2.1889615 -2.292258 -0.1941458 0.033663645
-2.1277857 -2.2997537 -0.19461051 0.034128353
-2.0492954 -2.3079078 -0.23453557 0.054536104
-1.0442299 -2.296988 -0.20416236 0.081024222
-1.0133142 -2.2878189 -0.19731288 0.074174739
-2.5924444 -2.1982517 -0.19764027 0.39746666
-2.5484431 -2.17521 -0.19248386 0.39231023
-2.3486433 -2.2111239 -0.18940347 0.16129975
-2.2864318 -2.1963162 -0.19733652 0.036854371
-2.2343373 -2.1875563 -0.17376384 0.013281688
-2.0297253 -2.1881902 -0.19910701 0.088548437
-1.9844028 -2.1835346 -0.17908162 0.10857382
-1.9025155 -2.1847301 -0.22841175 0.059243694
-1.0096116 -2.2291791 -0.2060706 0.082932465
-2.5861506 -2.1224575 -0.19582526 0.39565164
-2.5468426 -2.1200287 -0.18273275 0.38255912
-2.3636405 -2.1167049 -0.18184195 0.15373823
-2.2817919 -2.131124 -0.1902024 0.029720247
-2.1888192 -2.1368074 -0.22108738 0.060605228
-2.1419334 -2.1356523 -0.2352276 0.074745446
-2.0448399 -2.1569555 -0.23233214 0.055323303
-1.9778239 -2.1597955 -0.18999211 0.097663328
-1.8883331 -2.1458111 -0.23169407 0.0961968
-2.5846794 -2.0372014 -0.19589145 0.31992167
-2.5350304 -2.0388126 -0.19141382 0.31544402
-2.4277391 -2.0429018 -0.17429452 0.13402656
-2.3942835 -2.0544295 -0.1674643 0.12719634
-2.2995784 -2.0393295 -0.17436974 0.015033737
-1.9546434 -2.0277667 -0.22045889 0.081864536
-2.6460035 -1.9453204 -0.20710583 0.33113605
-2.6015315 -1.9613007 -0.20005515 0.32408535
-2.5353661 -1.9620467 -0.19308497 0.31711519
-2.4767268 -1.9871291 -0.17181671 0.13154876
-1.9421725 -1.9637392 -0.22969931 0.072624117
-1.9092847 -1.9447584 -0.23795383 0.064369604
-2.6464276 -1.881623 -0.20117004 0.32183421
-2.6070886 -1.8803734 -0.19795819 0.31862235
-2.5514257 -1.892086 -0.19237457 0.31303874
-2.2486103 -1.853948 -0.16583632 0.044410452
-2.1864655 -1.8588746 -0.20368479 0.0065619797
-2.1486688 -1.8629674 -0.19473119 0.015515581
-2.0171115 -1.8679706 -0.22394134 0.084293649
-1.9903208 -1.894425 -0.22440004 0.083834946
-2.6466818 -1.7996489 -0.20340462 0.32406878
-2.6071229 -1.8027638 -0.19767494 0.31833911
-2.5511942 -1.7954274 -0.19604982 0.31671399
